1.031,1.036,1.04,1.044,1.047,1.047,1.048,1.052,1.056,1.059,1.0625,1.065,1.07,1.077,1.082,1.086,1.089,1.092,1.095,1.098,1.101,1.102,1.1045,1.107,1.109,1.11,1.113,1.116,1.119,1.118,1.119,1.121,1.124,1.125,1.126,1.128,1.131,1.136,1.138,1.14,1.142,1.145,1.146,1.146,1.148,1.15,1.153,1.154,1.156,1.159,1.16,1.162,1.164,1.164,1.164,1.167,1.17,1.17,1.173,1.176,1.178,1.18,1.183,1.185,1.189,1.196,1.2,1.204,1.207,1.209,1.213,1.216,1.219,1.22,1.223,1.227,1.2295,1.233,1.236,1.24,1.244,1.247,1.251,1.255,1.257,1.261,1.265,1.269,1.271,1.272,1.276,1.279,1.28,1.28,1.281,1.283,1.285,1.286,1.288,1.289,1.292,1.295,1.298,1.301,1.306,1.31,1.312,1.314,1.317,1.322,1.327,1.332,1.335,1.341,1.347,1.346,1.347,1.356,1.354,1.35,1.352,1.354,1.38,1.444,1.585,1.777,1.936,2.03,2.064,2.076,2.088,2.094,2.096,2.098,2.107,2.113,2.117,2.117,2.117,2.12,2.12,2.125,2.125,2.12,2.11,2.104,2.092,2.08,2.064,2.059,2.055,2.053,2.053,2.055,2.055,2.057,2.057,2.057,2.059,2.059,2.059,2.057,2.055,2.055,2.057,2.057,2.057,2.059,2.062,2.066,2.076,2.088,2.1,2.117,2.125,2.135,2.14,2.143,2.143,2.143,2.14,2.14,2.14,2.14,2.143,2.146,2.146,2.148,2.15,2.154,2.158,2.162,2.164,2.172,2.176,2.182,2.184,2.188,2.195,2.205,2.21,2.219,2.23,2.246,2.256,2.264,2.275,2.29,2.307,2.332,2.354,2.373,2.393,2.41,2.424,2.438,2.447,2.453,2.459,2.46,2.467,2.473,2.477,2.482,2.488,2.494,2.5,2.504,2.51,2.516,2.52,2.525,2.531,2.535,2.545,2.55,2.557,2.562,2.566,2.572,2.58,2.584,2.59,2.598,2.602,2.602,2.607,2.611,2.62,2.625,2.635,2.64,2.648,2.652,2.656,2.664,2.666,2.67,2.676,2.68,2.686,2.693,2.701,2.709,2.713,2.717,2.72,2.723,2.729,2.736,2.742,2.746,2.752,2.76,2.771,2.783,2.79,2.791,2.797,2.8,2.805,2.807,2.809,2.81,2.816,2.822,2.828,2.836,2.842,2.848,2.855,2.863,2.87,2.873,2.88,2.889,2.896,2.9,2.908,2.918,2.922,2.93,2.934,2.943,2.95,2.955,2.963,2.973,2.98,2.988,2.998,3.006,3.014,3.025,3.031,3.043,3.05,3.057,3.066,3.07,3.08,3.086,3.094,3.098,3.107,3.117,3.121,3.135,3.14,3.146,3.152,3.16,3.166,3.176,3.182,3.19,3.2,3.205,3.215,3.22,3.23,3.24,3.248,3.262,3.271,3.281,3.293,3.303,3.31,3.318,3.33,3.336,3.342,3.346,3.352,3.355,3.36,3.365,3.371,3.379,3.385,3.389,3.39,3.389,3.379,3.373,3.37,3.357,3.346,3.332,3.318,3.309,3.299,3.293,3.287,3.285,3.28,3.277,3.273,3.271,3.271,3.27,3.266,3.27,3.266,3.266,3.262,3.262,3.256,3.254,3.25,3.246,3.24,3.24,3.24,3.24,3.236,3.236,3.236,3.232,3.23,3.23,3.23,3.229,3.225,3.225,3.223,3.22,3.217,3.215,3.215,3.21,3.21,3.21,3.21,3.21,3.207,3.205,3.205,3.205,3.205,3.2,3.2,3.195,3.195,3.193,3.19,3.19,3.193,3.195,3.195,3.2,3.205,3.205,3.197,3.186,3.17,3.146,3.125,3.113,3.102,3.096,3.094,3.094,3.121,3.168,3.236,3.285,3.314,3.318,3.318,3.314,3.309,3.299,3.287,3.277,3.277,3.27,3.262,3.262,3.266,3.266,3.266,3.271,3.277,3.28,3.281,3.281,3.293,3.299,3.318,3.352,3.404,3.459,3.494,3.537,3.562,3.574,3.584,3.586,3.594,3.596,3.605,3.605,3.605,3.611,3.615,3.625,3.63,3.635,3.637,3.645,3.65,3.65,3.654,3.656,3.664,3.664,3.67,3.666,3.67,3.678,3.684,3.688,3.69,3.697,3.7,3.703,3.707,3.713,3.717,3.72,3.725,3.727,3.73,3.736,3.744
1.029,1.034,1.037,1.041,1.044,1.044,1.045,1.05,1.054,1.057,1.06,1.0625,1.067,1.074,1.08,1.083,1.085,1.088,1.092,1.095,1.098,1.099,1.102,1.104,1.105,1.106,1.109,1.113,1.115,1.113,1.113,1.116,1.118,1.119,1.12,1.122,1.126,1.131,1.134,1.135,1.138,1.141,1.142,1.143,1.145,1.146,1.15,1.15,1.152,1.154,1.156,1.159,1.16,1.16,1.161,1.164,1.166,1.167,1.17,1.172,1.174,1.177,1.179,1.181,1.187,1.192,1.197,1.2,1.204,1.207,1.21,1.214,1.216,1.218,1.22,1.223,1.227,1.23,1.233,1.237,1.241,1.244,1.248,1.252,1.256,1.259,1.263,1.267,1.269,1.271,1.272,1.276,1.278,1.278,1.279,1.281,1.282,1.284,1.286,1.288,1.29,1.294,1.297,1.301,1.306,1.309,1.312,1.313,1.318,1.322,1.326,1.331,1.335,1.341,1.346,1.346,1.345,1.3545,1.354,1.35,1.352,1.353,1.375,1.437,1.571,1.761,1.919,2.021,2.049,2.066,2.082,2.09,2.092,2.094,2.104,2.11,2.113,2.115,2.115,2.117,2.117,2.12,2.12,2.117,2.107,2.094,2.086,2.072,2.059,2.055,2.05,2.049,2.049,2.05,2.053,2.055,2.057,2.057,2.059,2.059,2.057,2.057,2.055,2.055,2.057,2.057,2.057,2.057,2.059,2.062,2.068,2.076,2.088,2.1,2.11,2.115,2.12,2.12,2.123,2.12,2.117,2.117,2.117,2.12,2.125,2.127,2.129,2.13,2.135,2.14,2.145,2.148,2.154,2.162,2.168,2.172,2.176,2.182,2.188,2.195,2.205,2.21,2.225,2.238,2.248,2.258,2.271,2.283,2.307,2.33,2.354,2.373,2.393,2.412,2.426,2.441,2.45,2.455,2.46,2.465,2.467,2.473,2.479,2.486,2.492,2.498,2.5,2.506,2.51,2.516,2.521,2.525,2.531,2.537,2.545,2.547,2.553,2.56,2.566,2.57,2.576,2.58,2.586,2.594,2.6,2.602,2.605,2.61,2.615,2.623,2.633,2.639,2.646,2.65,2.656,2.664,2.666,2.67,2.676,2.68,2.686,2.693,2.7,2.705,2.71,2.717,2.72,2.723,2.73,2.736,2.742,2.746,2.752,2.76,2.771,2.783,2.79,2.793,2.797,2.8,2.805,2.807,2.809,2.81,2.816,2.822,2.83,2.836,2.842,2.85,2.855,2.865,2.87,2.877,2.883,2.889,2.896,2.9,2.908,2.918,2.922,2.93,2.938,2.943,2.951,2.959,2.967,2.975,2.98,2.99,2.998,3.008,3.016,3.025,3.033,3.043,3.053,3.06,3.066,3.074,3.082,3.09,3.096,3.102,3.107,3.117,3.127,3.137,3.143,3.15,3.156,3.166,3.17,3.178,3.186,3.193,3.203,3.21,3.215,3.225,3.236,3.242,3.254,3.266,3.277,3.287,3.295,3.303,3.314,3.322,3.33,3.342,3.346,3.35,3.352,3.357,3.363,3.37,3.373,3.379,3.385,3.389,3.39,3.389,3.383,3.373,3.37,3.357,3.35,3.336,3.318,3.309,3.303,3.295,3.293,3.287,3.285,3.28,3.277,3.277,3.273,3.271,3.27,3.271,3.27,3.266,3.262,3.262,3.256,3.256,3.25,3.246,3.24,3.24,3.24,3.24,3.236,3.236,3.236,3.236,3.23,3.23,3.23,3.229,3.229,3.225,3.223,3.22,3.217,3.215,3.215,3.215,3.21,3.21,3.21,3.21,3.205,3.205,3.205,3.203,3.2,3.197,3.195,3.193,3.19,3.19,3.19,3.186,3.186,3.19,3.19,3.19,3.2,3.203,3.195,3.182,3.168,3.143,3.127,3.113,3.104,3.098,3.094,3.094,3.121,3.17,3.236,3.281,3.314,3.318,3.318,3.314,3.307,3.293,3.285,3.28,3.273,3.266,3.262,3.262,3.262,3.262,3.266,3.266,3.271,3.28,3.28,3.281,3.287,3.3,3.322,3.352,3.408,3.459,3.5,3.537,3.562,3.578,3.586,3.594,3.596,3.6,3.6,3.605,3.605,3.611,3.62,3.629,3.635,3.637,3.637,3.646,3.65,3.65,3.656,3.66,3.664,3.664,3.666,3.67,3.67,3.678,3.684,3.688,3.69,3.697,3.697,3.703,3.707,3.71,3.717,3.717,3.725,3.727,3.73,3.736,3.744
1.026,1.03,1.034,1.038,1.041,1.04,1.042,1.047,1.05,1.053,1.057,1.059,1.063,1.07,1.075,1.078,1.081,1.084,1.087,1.09,1.093,1.095,1.097,1.099,1.102,1.102,1.1045,1.107,1.109,1.108,1.108,1.11,1.113,1.113,1.115,1.116,1.118,1.124,1.128,1.129,1.132,1.136,1.137,1.138,1.139,1.142,1.145,1.146,1.147,1.15,1.151,1.153,1.154,1.154,1.156,1.158,1.161,1.163,1.166,1.168,1.17,1.172,1.174,1.177,1.183,1.1875,1.193,1.197,1.2,1.202,1.207,1.21,1.212,1.214,1.216,1.219,1.222,1.227,1.23,1.233,1.237,1.24,1.244,1.248,1.252,1.256,1.26,1.264,1.265,1.269,1.2705,1.272,1.275,1.275,1.276,1.279,1.28,1.282,1.284,1.286,1.289,1.292,1.296,1.3,1.304,1.309,1.311,1.313,1.318,1.322,1.326,1.331,1.335,1.34,1.345,1.345,1.341,1.354,1.354,1.35,1.351,1.352,1.373,1.43,1.559,1.743,1.898,2.0,2.031,2.053,2.072,2.084,2.086,2.088,2.096,2.104,2.107,2.11,2.111,2.111,2.113,2.113,2.111,2.105,2.092,2.082,2.074,2.06,2.049,2.043,2.04,2.04,2.04,2.043,2.047,2.05,2.053,2.053,2.055,2.055,2.055,2.05,2.05,2.05,2.05,2.05,2.05,2.05,2.053,2.055,2.06,2.064,2.074,2.084,2.092,2.098,2.104,2.1,2.1,2.098,2.098,2.098,2.098,2.104,2.105,2.107,2.111,2.113,2.117,2.127,2.13,2.135,2.143,2.15,2.158,2.162,2.17,2.174,2.182,2.19,2.2,2.207,2.217,2.23,2.242,2.254,2.268,2.281,2.305,2.33,2.354,2.373,2.393,2.412,2.426,2.441,2.45,2.455,2.46,2.465,2.47,2.473,2.479,2.486,2.492,2.498,2.5,2.506,2.514,2.516,2.521,2.53,2.531,2.537,2.545,2.55,2.557,2.56,2.566,2.57,2.576,2.58,2.586,2.592,2.598,2.602,2.602,2.607,2.613,2.623,2.629,2.637,2.643,2.65,2.652,2.66,2.666,2.67,2.676,2.68,2.686,2.693,2.7,2.705,2.713,2.717,2.72,2.727,2.732,2.738,2.746,2.748,2.754,2.764,2.771,2.783,2.79,2.793,2.797,2.8,2.805,2.807,2.809,2.81,2.816,2.822,2.83,2.836,2.844,2.85,2.855,2.865,2.871,2.877,2.883,2.89,2.896,2.902,2.908,2.918,2.924,2.93,2.938,2.945,2.951,2.959,2.969,2.977,2.982,2.992,2.998,3.01,3.018,3.025,3.037,3.047,3.055,3.064,3.07,3.08,3.086,3.094,3.098,3.105,3.113,3.121,3.13,3.14,3.148,3.156,3.16,3.166,3.176,3.18,3.19,3.195,3.205,3.21,3.22,3.23,3.236,3.246,3.258,3.27,3.28,3.293,3.299,3.307,3.314,3.324,3.336,3.342,3.346,3.352,3.357,3.357,3.363,3.37,3.373,3.379,3.385,3.389,3.39,3.389,3.383,3.377,3.37,3.36,3.35,3.336,3.322,3.314,3.307,3.299,3.293,3.293,3.287,3.281,3.28,3.277,3.273,3.271,3.27,3.27,3.266,3.262,3.262,3.258,3.256,3.25,3.246,3.24,3.24,3.24,3.24,3.236,3.236,3.236,3.236,3.236,3.232,3.23,3.23,3.23,3.229,3.225,3.223,3.22,3.217,3.215,3.215,3.215,3.21,3.21,3.21,3.205,3.205,3.203,3.2,3.197,3.195,3.193,3.19,3.186,3.186,3.186,3.18,3.18,3.18,3.18,3.18,3.186,3.19,3.195,3.19,3.18,3.166,3.14,3.127,3.113,3.104,3.098,3.09,3.094,3.121,3.17,3.236,3.281,3.309,3.318,3.314,3.314,3.303,3.293,3.281,3.277,3.27,3.266,3.262,3.262,3.262,3.262,3.262,3.262,3.266,3.273,3.277,3.28,3.287,3.303,3.324,3.352,3.408,3.465,3.5,3.537,3.564,3.578,3.586,3.594,3.6,3.605,3.605,3.605,3.605,3.611,3.62,3.629,3.637,3.637,3.64,3.646,3.65,3.654,3.656,3.664,3.664,3.666,3.67,3.67,3.67,3.678,3.684,3.688,3.69,3.697,3.697,3.703,3.707,3.71,3.717,3.717,3.725,3.727,3.73,3.736,3.744
1.025,1.029,1.034,1.037,1.04,1.04,1.041,1.045,1.049,1.052,1.055,1.058,1.0625,1.069,1.074,1.078,1.081,1.083,1.087,1.09,1.092,1.093,1.096,1.098,1.1,1.102,1.103,1.106,1.108,1.107,1.107,1.11,1.112,1.113,1.115,1.115,1.118,1.122,1.125,1.127,1.13,1.134,1.137,1.137,1.138,1.141,1.145,1.145,1.146,1.148,1.15,1.152,1.153,1.153,1.155,1.158,1.16,1.161,1.164,1.166,1.169,1.171,1.173,1.176,1.181,1.1875,1.192,1.196,1.198,1.202,1.205,1.209,1.211,1.212,1.215,1.219,1.222,1.226,1.2295,1.232,1.236,1.239,1.243,1.247,1.25,1.255,1.259,1.263,1.265,1.267,1.269,1.272,1.272,1.274,1.276,1.276,1.279,1.281,1.283,1.284,1.287,1.291,1.294,1.297,1.302,1.308,1.31,1.312,1.316,1.32,1.325,1.327,1.332,1.34,1.344,1.342,1.338,1.35,1.351,1.349,1.35,1.35,1.37,1.423,1.541,1.717,1.867,1.968,2.014,2.037,2.06,2.07,2.074,2.074,2.086,2.092,2.098,2.1,2.104,2.098,2.096,2.096,2.092,2.082,2.074,2.068,2.06,2.049,2.041,2.035,2.035,2.035,2.035,2.04,2.043,2.049,2.05,2.05,2.055,2.055,2.053,2.05,2.049,2.049,2.049,2.049,2.047,2.047,2.047,2.049,2.053,2.057,2.062,2.07,2.076,2.082,2.086,2.086,2.086,2.084,2.084,2.084,2.086,2.088,2.092,2.094,2.098,2.104,2.107,2.113,2.12,2.125,2.13,2.14,2.148,2.154,2.162,2.168,2.176,2.186,2.195,2.203,2.21,2.229,2.24,2.25,2.266,2.283,2.307,2.332,2.357,2.379,2.398,2.412,2.426,2.443,2.453,2.459,2.46,2.467,2.47,2.477,2.482,2.488,2.494,2.5,2.504,2.51,2.516,2.52,2.525,2.531,2.535,2.541,2.547,2.553,2.557,2.562,2.57,2.572,2.576,2.582,2.586,2.592,2.6,2.602,2.605,2.61,2.615,2.623,2.629,2.637,2.643,2.646,2.652,2.66,2.666,2.67,2.678,2.68,2.688,2.693,2.7,2.705,2.713,2.717,2.723,2.727,2.734,2.742,2.746,2.748,2.754,2.764,2.771,2.78,2.787,2.791,2.797,2.8,2.805,2.807,2.809,2.81,2.814,2.822,2.828,2.836,2.844,2.85,2.855,2.865,2.871,2.877,2.883,2.889,2.896,2.902,2.908,2.918,2.922,2.93,2.938,2.945,2.953,2.959,2.969,2.977,2.986,2.994,3.004,3.01,3.018,3.027,3.04,3.047,3.057,3.066,3.072,3.08,3.09,3.094,3.102,3.107,3.113,3.121,3.13,3.14,3.146,3.152,3.16,3.168,3.176,3.18,3.19,3.195,3.205,3.21,3.22,3.23,3.24,3.248,3.262,3.271,3.281,3.293,3.299,3.309,3.314,3.324,3.336,3.342,3.35,3.352,3.357,3.36,3.365,3.371,3.377,3.385,3.389,3.39,3.39,3.39,3.383,3.377,3.37,3.36,3.35,3.338,3.324,3.314,3.309,3.3,3.299,3.293,3.287,3.285,3.281,3.277,3.277,3.271,3.27,3.27,3.266,3.266,3.262,3.258,3.256,3.25,3.248,3.242,3.24,3.24,3.24,3.24,3.236,3.236,3.236,3.236,3.236,3.232,3.23,3.23,3.229,3.225,3.225,3.22,3.22,3.217,3.215,3.215,3.21,3.21,3.21,3.207,3.205,3.203,3.2,3.197,3.195,3.193,3.19,3.186,3.186,3.186,3.18,3.18,3.18,3.18,3.18,3.182,3.186,3.195,3.193,3.18,3.166,3.143,3.129,3.117,3.107,3.102,3.09,3.096,3.121,3.17,3.236,3.285,3.31,3.318,3.318,3.314,3.303,3.293,3.281,3.277,3.27,3.266,3.262,3.262,3.262,3.262,3.258,3.256,3.262,3.266,3.273,3.277,3.287,3.303,3.328,3.355,3.41,3.465,3.5,3.537,3.568,3.58,3.586,3.596,3.6,3.605,3.605,3.6,3.61,3.611,3.62,3.63,3.637,3.637,3.64,3.646,3.65,3.656,3.656,3.664,3.664,3.67,3.67,3.67,3.674,3.678,3.684,3.69,3.693,3.697,3.703,3.703,3.71,3.717,3.717,3.72,3.725,3.73,3.736,3.744,3.744
1.026,1.029,1.034,1.037,1.04,1.04,1.042,1.046,1.049,1.053,1.055,1.059,1.0625,1.069,1.075,1.078,1.08,1.084,1.087,1.09,1.092,1.094,1.096,1.098,1.1,1.101,1.104,1.107,1.109,1.108,1.108,1.11,1.113,1.115,1.115,1.116,1.119,1.124,1.126,1.128,1.13,1.134,1.137,1.138,1.139,1.142,1.145,1.146,1.147,1.149,1.151,1.153,1.153,1.153,1.155,1.158,1.16,1.162,1.164,1.166,1.169,1.171,1.173,1.177,1.181,1.1875,1.192,1.196,1.198,1.202,1.205,1.209,1.211,1.212,1.215,1.219,1.222,1.226,1.229,1.232,1.236,1.239,1.243,1.247,1.25,1.253,1.259,1.261,1.265,1.267,1.269,1.272,1.272,1.274,1.275,1.278,1.279,1.28,1.282,1.284,1.287,1.29,1.292,1.296,1.301,1.306,1.309,1.312,1.313,1.318,1.323,1.325,1.33,1.336,1.342,1.34,1.337,1.349,1.35,1.347,1.347,1.347,1.367,1.418,1.5205,1.678,1.827,1.939,1.994,2.025,2.047,2.057,2.06,2.064,2.07,2.08,2.086,2.086,2.082,2.076,2.074,2.074,2.07,2.064,2.059,2.053,2.043,2.035,2.033,2.033,2.031,2.033,2.035,2.04,2.043,2.049,2.05,2.053,2.055,2.055,2.053,2.05,2.05,2.049,2.049,2.047,2.043,2.043,2.043,2.043,2.043,2.049,2.053,2.057,2.064,2.066,2.07,2.07,2.07,2.072,2.07,2.072,2.074,2.076,2.082,2.086,2.088,2.092,2.096,2.104,2.111,2.115,2.123,2.13,2.14,2.146,2.154,2.162,2.172,2.182,2.19,2.197,2.209,2.225,2.238,2.25,2.266,2.285,2.307,2.336,2.36,2.385,2.4,2.416,2.43,2.443,2.455,2.46,2.467,2.47,2.473,2.479,2.486,2.492,2.498,2.504,2.51,2.514,2.516,2.521,2.53,2.531,2.537,2.545,2.547,2.553,2.56,2.562,2.566,2.572,2.576,2.58,2.586,2.592,2.596,2.6,2.602,2.605,2.611,2.62,2.625,2.637,2.639,2.646,2.652,2.658,2.666,2.67,2.678,2.68,2.688,2.693,2.7,2.705,2.71,2.717,2.72,2.727,2.734,2.74,2.746,2.748,2.754,2.764,2.77,2.78,2.785,2.791,2.795,2.8,2.805,2.807,2.809,2.812,2.814,2.822,2.83,2.836,2.844,2.852,2.855,2.865,2.871,2.877,2.885,2.89,2.896,2.902,2.908,2.918,2.922,2.93,2.938,2.945,2.953,2.959,2.969,2.977,2.986,2.994,3.004,3.01,3.021,3.027,3.04,3.047,3.057,3.066,3.072,3.08,3.09,3.094,3.104,3.107,3.113,3.121,3.13,3.14,3.146,3.152,3.16,3.166,3.176,3.182,3.19,3.195,3.205,3.215,3.22,3.23,3.24,3.25,3.262,3.271,3.281,3.293,3.299,3.309,3.314,3.324,3.336,3.346,3.35,3.355,3.357,3.363,3.37,3.373,3.379,3.385,3.39,3.39,3.39,3.39,3.385,3.379,3.371,3.363,3.352,3.338,3.324,3.318,3.314,3.303,3.3,3.299,3.293,3.287,3.285,3.281,3.28,3.277,3.271,3.271,3.27,3.266,3.266,3.262,3.258,3.256,3.25,3.248,3.246,3.246,3.242,3.24,3.24,3.24,3.24,3.236,3.236,3.236,3.236,3.232,3.23,3.23,3.225,3.223,3.22,3.22,3.217,3.215,3.215,3.215,3.21,3.21,3.21,3.207,3.205,3.205,3.2,3.2,3.195,3.19,3.19,3.19,3.186,3.186,3.186,3.186,3.186,3.19,3.19,3.2,3.197,3.186,3.166,3.15,3.137,3.121,3.113,3.104,3.094,3.098,3.127,3.172,3.24,3.287,3.314,3.322,3.322,3.318,3.309,3.293,3.285,3.28,3.271,3.266,3.262,3.266,3.262,3.262,3.256,3.258,3.262,3.266,3.271,3.277,3.287,3.309,3.33,3.357,3.414,3.465,3.5,3.537,3.568,3.58,3.586,3.6,3.605,3.605,3.61,3.605,3.605,3.615,3.62,3.63,3.637,3.637,3.645,3.65,3.65,3.656,3.656,3.664,3.67,3.67,3.674,3.674,3.678,3.68,3.684,3.69,3.697,3.703,3.703,3.71,3.71,3.717,3.725,3.725,3.73,3.734,3.736,3.744,3.75
1.026,1.031,1.035,1.039,1.042,1.041,1.042,1.047,1.05,1.053,1.057,1.06,1.063,1.071,1.075,1.078,1.081,1.084,1.087,1.09,1.092,1.094,1.097,1.099,1.101,1.102,1.1045,1.107,1.11,1.11,1.11,1.113,1.115,1.116,1.116,1.118,1.121,1.125,1.128,1.13,1.132,1.137,1.139,1.139,1.141,1.144,1.146,1.147,1.148,1.15,1.151,1.153,1.154,1.155,1.156,1.159,1.16,1.163,1.166,1.168,1.17,1.172,1.174,1.177,1.183,1.1875,1.193,1.197,1.2,1.202,1.205,1.209,1.212,1.213,1.216,1.219,1.222,1.226,1.2295,1.233,1.236,1.24,1.243,1.247,1.251,1.255,1.259,1.263,1.265,1.267,1.269,1.271,1.272,1.274,1.276,1.278,1.279,1.28,1.282,1.283,1.285,1.289,1.292,1.295,1.301,1.305,1.308,1.31,1.312,1.316,1.32,1.322,1.327,1.334,1.34,1.339,1.336,1.345,1.349,1.345,1.345,1.344,1.363,1.408,1.491,1.623,1.782,1.898,1.977,2.016,2.04,2.043,2.043,2.05,2.055,2.064,2.068,2.066,2.064,2.06,2.057,2.057,2.053,2.047,2.04,2.035,2.03,2.03,2.027,2.025,2.025,2.03,2.031,2.035,2.04,2.043,2.049,2.05,2.05,2.053,2.05,2.049,2.047,2.043,2.043,2.04,2.037,2.037,2.037,2.037,2.037,2.04,2.041,2.047,2.053,2.057,2.059,2.06,2.06,2.062,2.064,2.064,2.066,2.07,2.074,2.076,2.08,2.082,2.088,2.096,2.1,2.107,2.113,2.125,2.13,2.14,2.148,2.156,2.164,2.176,2.186,2.195,2.205,2.22,2.236,2.248,2.266,2.285,2.31,2.338,2.367,2.387,2.406,2.42,2.432,2.45,2.459,2.467,2.47,2.473,2.477,2.486,2.492,2.494,2.5,2.506,2.51,2.516,2.52,2.525,2.53,2.531,2.537,2.545,2.547,2.553,2.557,2.562,2.566,2.57,2.576,2.58,2.582,2.59,2.592,2.596,2.6,2.605,2.61,2.617,2.623,2.633,2.639,2.643,2.65,2.656,2.664,2.67,2.678,2.68,2.688,2.693,2.7,2.705,2.71,2.717,2.723,2.727,2.734,2.74,2.746,2.748,2.754,2.76,2.768,2.777,2.783,2.79,2.795,2.8,2.805,2.809,2.81,2.812,2.816,2.824,2.83,2.836,2.844,2.852,2.855,2.865,2.873,2.877,2.885,2.893,2.896,2.904,2.912,2.918,2.924,2.93,2.938,2.945,2.953,2.959,2.969,2.977,2.986,2.994,3.004,3.01,3.021,3.03,3.04,3.047,3.055,3.064,3.07,3.08,3.086,3.094,3.102,3.105,3.113,3.121,3.13,3.137,3.146,3.15,3.16,3.166,3.172,3.18,3.186,3.195,3.205,3.215,3.22,3.23,3.24,3.248,3.262,3.271,3.28,3.287,3.299,3.307,3.314,3.324,3.336,3.346,3.35,3.355,3.357,3.363,3.37,3.373,3.379,3.389,3.39,3.396,3.396,3.39,3.389,3.379,3.373,3.363,3.352,3.342,3.33,3.322,3.314,3.309,3.303,3.3,3.299,3.293,3.287,3.285,3.281,3.277,3.277,3.273,3.271,3.27,3.266,3.266,3.262,3.262,3.256,3.25,3.25,3.248,3.246,3.246,3.242,3.24,3.24,3.24,3.24,3.236,3.236,3.236,3.236,3.23,3.23,3.225,3.225,3.223,3.22,3.22,3.217,3.217,3.217,3.215,3.215,3.215,3.215,3.21,3.21,3.21,3.205,3.2,3.2,3.2,3.2,3.197,3.197,3.197,3.2,3.2,3.2,3.21,3.205,3.19,3.17,3.156,3.14,3.129,3.117,3.107,3.096,3.104,3.13,3.178,3.246,3.293,3.318,3.328,3.328,3.322,3.314,3.299,3.287,3.285,3.277,3.27,3.266,3.266,3.266,3.262,3.258,3.262,3.262,3.27,3.271,3.277,3.293,3.309,3.33,3.357,3.414,3.465,3.5,3.537,3.564,3.58,3.586,3.6,3.605,3.605,3.61,3.605,3.605,3.615,3.621,3.63,3.637,3.64,3.645,3.65,3.654,3.656,3.66,3.664,3.67,3.67,3.678,3.678,3.678,3.684,3.688,3.693,3.697,3.703,3.71,3.71,3.717,3.725,3.727,3.727,3.73,3.736,3.744,3.75,3.75
1.028,1.032,1.036,1.04,1.043,1.043,1.044,1.049,1.053,1.055,1.059,1.062,1.065,1.071,1.077,1.08,1.082,1.085,1.088,1.092,1.094,1.095,1.098,1.1,1.102,1.103,1.105,1.109,1.112,1.112,1.112,1.115,1.116,1.118,1.12,1.121,1.123,1.128,1.132,1.134,1.136,1.139,1.141,1.141,1.142,1.145,1.147,1.148,1.15,1.151,1.153,1.154,1.156,1.156,1.158,1.16,1.162,1.164,1.167,1.17,1.172,1.174,1.176,1.178,1.184,1.19,1.193,1.197,1.2,1.203,1.207,1.21,1.212,1.213,1.216,1.219,1.223,1.227,1.23,1.233,1.237,1.241,1.244,1.248,1.252,1.256,1.259,1.263,1.265,1.267,1.269,1.272,1.274,1.275,1.276,1.278,1.28,1.281,1.282,1.283,1.285,1.288,1.291,1.294,1.3,1.305,1.306,1.309,1.311,1.314,1.318,1.32,1.324,1.332,1.336,1.335,1.333,1.341,1.345,1.34,1.34,1.34,1.357,1.398,1.462,1.578,1.729,1.85,1.943,2.004,2.033,2.037,2.04,2.043,2.049,2.05,2.05,2.049,2.043,2.04,2.035,2.035,2.033,2.03,2.025,2.023,2.023,2.023,2.021,2.021,2.023,2.023,2.027,2.031,2.035,2.04,2.043,2.043,2.047,2.047,2.043,2.041,2.04,2.04,2.037,2.033,2.031,2.03,2.03,2.03,2.03,2.031,2.033,2.037,2.04,2.043,2.049,2.05,2.055,2.055,2.057,2.057,2.06,2.064,2.068,2.07,2.07,2.074,2.08,2.086,2.092,2.098,2.105,2.115,2.125,2.133,2.143,2.15,2.16,2.172,2.182,2.188,2.2,2.217,2.23,2.248,2.268,2.29,2.314,2.346,2.373,2.395,2.412,2.426,2.438,2.453,2.465,2.473,2.477,2.479,2.482,2.488,2.494,2.5,2.506,2.51,2.516,2.52,2.521,2.525,2.531,2.535,2.537,2.545,2.547,2.55,2.557,2.56,2.562,2.566,2.57,2.572,2.58,2.582,2.59,2.59,2.594,2.6,2.605,2.611,2.62,2.629,2.637,2.643,2.65,2.656,2.664,2.67,2.676,2.68,2.688,2.693,2.7,2.705,2.709,2.717,2.723,2.727,2.734,2.74,2.746,2.748,2.754,2.76,2.768,2.775,2.783,2.787,2.795,2.8,2.805,2.809,2.81,2.812,2.816,2.824,2.832,2.836,2.844,2.852,2.86,2.867,2.873,2.879,2.885,2.893,2.896,2.904,2.912,2.918,2.924,2.93,2.938,2.947,2.955,2.96,2.97,2.977,2.986,2.994,3.004,3.01,3.021,3.027,3.04,3.047,3.055,3.064,3.07,3.078,3.084,3.094,3.098,3.104,3.113,3.12,3.127,3.137,3.14,3.15,3.156,3.166,3.17,3.18,3.186,3.193,3.203,3.21,3.22,3.23,3.236,3.246,3.256,3.266,3.277,3.287,3.295,3.303,3.314,3.324,3.332,3.346,3.35,3.355,3.36,3.363,3.371,3.379,3.385,3.39,3.396,3.398,3.398,3.396,3.39,3.385,3.379,3.37,3.357,3.346,3.336,3.324,3.318,3.314,3.309,3.309,3.303,3.299,3.293,3.287,3.287,3.281,3.28,3.277,3.277,3.271,3.271,3.27,3.266,3.266,3.262,3.258,3.256,3.254,3.25,3.25,3.246,3.246,3.242,3.24,3.24,3.24,3.236,3.236,3.236,3.236,3.23,3.23,3.229,3.225,3.225,3.225,3.223,3.225,3.225,3.225,3.225,3.225,3.223,3.223,3.22,3.217,3.215,3.215,3.21,3.21,3.21,3.215,3.215,3.215,3.215,3.217,3.22,3.22,3.215,3.195,3.18,3.16,3.146,3.135,3.121,3.113,3.102,3.107,3.137,3.182,3.25,3.299,3.324,3.336,3.336,3.328,3.318,3.307,3.293,3.287,3.28,3.271,3.266,3.266,3.262,3.258,3.256,3.256,3.262,3.266,3.27,3.277,3.287,3.307,3.328,3.357,3.414,3.463,3.5,3.537,3.562,3.578,3.586,3.6,3.602,3.605,3.61,3.61,3.61,3.62,3.625,3.63,3.64,3.645,3.646,3.65,3.656,3.656,3.66,3.664,3.67,3.674,3.678,3.678,3.678,3.684,3.688,3.693,3.697,3.703,3.71,3.713,3.717,3.725,3.727,3.73,3.73,3.736,3.744,3.75,3.75
1.027,1.031,1.036,1.04,1.042,1.042,1.044,1.048,1.052,1.055,1.058,1.062,1.064,1.071,1.075,1.078,1.081,1.084,1.088,1.09,1.092,1.095,1.097,1.1,1.102,1.102,1.1045,1.107,1.11,1.11,1.11,1.113,1.116,1.116,1.118,1.12,1.123,1.128,1.131,1.132,1.135,1.138,1.14,1.141,1.142,1.145,1.146,1.148,1.149,1.15,1.152,1.154,1.155,1.155,1.157,1.159,1.162,1.164,1.166,1.169,1.171,1.173,1.174,1.177,1.183,1.1875,1.192,1.196,1.2,1.202,1.205,1.209,1.211,1.212,1.216,1.219,1.222,1.227,1.23,1.233,1.236,1.24,1.244,1.248,1.251,1.255,1.259,1.263,1.265,1.265,1.269,1.271,1.272,1.274,1.276,1.276,1.28,1.281,1.282,1.283,1.285,1.288,1.291,1.294,1.298,1.302,1.306,1.306,1.31,1.3125,1.317,1.318,1.323,1.331,1.335,1.335,1.333,1.34,1.344,1.34,1.34,1.34,1.3545,1.393,1.446,1.548,1.672,1.808,1.903,1.977,2.012,2.025,2.03,2.03,2.03,2.03,2.03,2.027,2.025,2.023,2.02,2.021,2.02,2.018,2.016,2.014,2.012,2.012,2.012,2.012,2.012,2.014,2.018,2.021,2.025,2.03,2.031,2.033,2.035,2.035,2.033,2.031,2.03,2.03,2.03,2.025,2.023,2.021,2.02,2.02,2.02,2.023,2.025,2.03,2.033,2.035,2.037,2.04,2.043,2.047,2.049,2.05,2.053,2.057,2.06,2.06,2.062,2.066,2.07,2.076,2.086,2.09,2.098,2.11,2.117,2.129,2.135,2.143,2.154,2.164,2.176,2.184,2.195,2.21,2.229,2.246,2.266,2.29,2.316,2.352,2.375,2.398,2.416,2.43,2.441,2.453,2.467,2.473,2.479,2.482,2.486,2.494,2.5,2.504,2.51,2.516,2.52,2.521,2.53,2.531,2.531,2.535,2.537,2.545,2.547,2.55,2.553,2.557,2.56,2.562,2.566,2.57,2.572,2.58,2.582,2.586,2.59,2.596,2.602,2.61,2.62,2.625,2.637,2.64,2.648,2.652,2.662,2.67,2.676,2.68,2.688,2.691,2.7,2.705,2.709,2.717,2.72,2.727,2.732,2.738,2.742,2.748,2.752,2.76,2.768,2.775,2.783,2.787,2.795,2.8,2.805,2.809,2.81,2.812,2.816,2.824,2.832,2.84,2.846,2.852,2.86,2.87,2.873,2.88,2.887,2.893,2.9,2.904,2.914,2.918,2.926,2.934,2.938,2.947,2.955,2.963,2.973,2.98,2.988,2.996,3.004,3.012,3.021,3.03,3.04,3.047,3.057,3.066,3.07,3.08,3.086,3.094,3.098,3.105,3.113,3.121,3.129,3.137,3.143,3.15,3.158,3.166,3.172,3.18,3.186,3.195,3.203,3.21,3.22,3.23,3.236,3.246,3.258,3.27,3.28,3.287,3.295,3.303,3.314,3.324,3.336,3.346,3.352,3.357,3.363,3.37,3.373,3.383,3.39,3.396,3.398,3.402,3.402,3.396,3.39,3.385,3.377,3.37,3.357,3.346,3.336,3.33,3.324,3.318,3.314,3.314,3.309,3.303,3.3,3.295,3.293,3.287,3.287,3.285,3.281,3.28,3.277,3.273,3.271,3.271,3.266,3.262,3.262,3.262,3.258,3.256,3.254,3.25,3.25,3.248,3.246,3.246,3.242,3.242,3.24,3.24,3.236,3.236,3.236,3.232,3.232,3.23,3.23,3.23,3.232,3.236,3.236,3.236,3.236,3.236,3.232,3.23,3.229,3.225,3.225,3.225,3.225,3.229,3.23,3.23,3.23,3.232,3.236,3.236,3.225,3.205,3.186,3.168,3.15,3.137,3.127,3.117,3.107,3.113,3.137,3.19,3.256,3.3,3.33,3.342,3.342,3.332,3.324,3.309,3.299,3.293,3.281,3.273,3.27,3.266,3.266,3.262,3.254,3.256,3.258,3.266,3.27,3.277,3.293,3.309,3.33,3.363,3.414,3.463,3.504,3.537,3.562,3.574,3.586,3.596,3.6,3.605,3.61,3.61,3.611,3.62,3.625,3.635,3.645,3.645,3.65,3.654,3.656,3.66,3.664,3.666,3.67,3.678,3.678,3.678,3.678,3.684,3.69,3.697,3.703,3.707,3.71,3.717,3.717,3.725,3.73,3.73,3.73,3.736,3.744,3.748,3.754
1.026,1.03,1.034,1.038,1.041,1.041,1.043,1.047,1.051,1.054,1.058,1.06,1.063,1.07,1.075,1.078,1.08,1.083,1.087,1.09,1.092,1.094,1.096,1.098,1.1,1.102,1.104,1.107,1.109,1.108,1.11,1.112,1.115,1.116,1.118,1.119,1.122,1.127,1.13,1.132,1.134,1.137,1.139,1.14,1.141,1.144,1.146,1.147,1.148,1.15,1.152,1.153,1.154,1.154,1.156,1.159,1.16,1.163,1.166,1.168,1.17,1.172,1.174,1.177,1.181,1.1875,1.191,1.195,1.197,1.2,1.205,1.208,1.21,1.211,1.214,1.218,1.222,1.226,1.2295,1.232,1.236,1.239,1.243,1.247,1.25,1.253,1.257,1.261,1.264,1.265,1.268,1.2705,1.272,1.272,1.275,1.276,1.279,1.281,1.282,1.283,1.285,1.288,1.291,1.294,1.297,1.302,1.305,1.306,1.309,1.312,1.315,1.318,1.322,1.33,1.336,1.335,1.333,1.34,1.344,1.342,1.342,1.341,1.355,1.391,1.439,1.521,1.632,1.767,1.868,1.948,1.986,2.002,2.004,2.006,2.006,2.004,2.006,2.012,2.008,2.004,2.004,2.006,2.006,2.004,2.002,2.0,1.998,1.998,1.998,1.996,1.998,2.0,2.004,2.008,2.012,2.016,2.018,2.02,2.021,2.021,2.02,2.02,2.02,2.02,2.02,2.016,2.014,2.014,2.014,2.014,2.014,2.016,2.018,2.02,2.023,2.027,2.031,2.033,2.035,2.04,2.04,2.043,2.047,2.05,2.055,2.055,2.055,2.059,2.062,2.07,2.076,2.084,2.092,2.104,2.113,2.123,2.13,2.14,2.148,2.16,2.17,2.182,2.193,2.207,2.227,2.246,2.266,2.293,2.322,2.354,2.38,2.4,2.416,2.43,2.441,2.45,2.467,2.477,2.482,2.486,2.488,2.498,2.5,2.506,2.514,2.516,2.521,2.525,2.53,2.531,2.535,2.535,2.537,2.545,2.547,2.55,2.553,2.557,2.56,2.562,2.566,2.57,2.576,2.58,2.582,2.586,2.59,2.596,2.602,2.611,2.62,2.627,2.637,2.643,2.648,2.652,2.66,2.668,2.676,2.68,2.688,2.691,2.7,2.705,2.709,2.717,2.723,2.727,2.732,2.738,2.746,2.748,2.754,2.76,2.768,2.773,2.78,2.787,2.793,2.8,2.805,2.809,2.81,2.812,2.82,2.826,2.834,2.84,2.848,2.855,2.863,2.87,2.877,2.883,2.889,2.896,2.9,2.908,2.914,2.92,2.926,2.934,2.94,2.95,2.955,2.963,2.973,2.98,2.99,2.996,3.004,3.012,3.021,3.03,3.04,3.047,3.057,3.066,3.072,3.08,3.09,3.094,3.104,3.107,3.117,3.125,3.13,3.14,3.146,3.152,3.16,3.168,3.176,3.182,3.19,3.195,3.205,3.215,3.223,3.232,3.24,3.25,3.262,3.271,3.281,3.287,3.299,3.307,3.314,3.324,3.336,3.346,3.352,3.357,3.363,3.37,3.373,3.383,3.39,3.396,3.398,3.398,3.396,3.39,3.389,3.383,3.373,3.365,3.357,3.346,3.338,3.332,3.328,3.318,3.318,3.318,3.314,3.31,3.307,3.303,3.299,3.295,3.293,3.293,3.287,3.287,3.285,3.281,3.28,3.277,3.273,3.271,3.27,3.266,3.266,3.266,3.262,3.262,3.262,3.258,3.258,3.256,3.256,3.254,3.25,3.25,3.248,3.246,3.246,3.242,3.242,3.24,3.24,3.242,3.246,3.246,3.246,3.248,3.248,3.248,3.248,3.246,3.242,3.24,3.24,3.242,3.242,3.246,3.246,3.248,3.254,3.254,3.25,3.248,3.236,3.215,3.195,3.176,3.156,3.143,3.137,3.127,3.113,3.117,3.143,3.195,3.258,3.303,3.332,3.342,3.342,3.338,3.33,3.314,3.303,3.295,3.287,3.28,3.271,3.271,3.27,3.266,3.258,3.262,3.262,3.27,3.277,3.287,3.3,3.318,3.342,3.373,3.42,3.465,3.508,3.537,3.562,3.574,3.586,3.596,3.6,3.605,3.61,3.611,3.611,3.621,3.629,3.637,3.645,3.646,3.65,3.656,3.66,3.664,3.664,3.67,3.678,3.68,3.68,3.68,3.68,3.684,3.69,3.697,3.703,3.71,3.713,3.717,3.725,3.727,3.73,3.73,3.736,3.74,3.744,3.75,3.758
1.027,1.031,1.036,1.04,1.042,1.042,1.044,1.048,1.052,1.055,1.058,1.062,1.064,1.071,1.075,1.078,1.081,1.084,1.088,1.091,1.093,1.095,1.098,1.1,1.102,1.104,1.105,1.109,1.112,1.11,1.112,1.115,1.116,1.118,1.12,1.121,1.124,1.129,1.132,1.134,1.137,1.14,1.141,1.142,1.144,1.146,1.148,1.149,1.15,1.152,1.153,1.155,1.157,1.157,1.158,1.16,1.162,1.164,1.167,1.17,1.172,1.173,1.176,1.178,1.183,1.1875,1.192,1.196,1.2,1.202,1.205,1.209,1.211,1.212,1.215,1.219,1.222,1.227,1.23,1.233,1.237,1.241,1.244,1.248,1.252,1.255,1.259,1.263,1.265,1.265,1.269,1.271,1.272,1.274,1.275,1.278,1.28,1.282,1.283,1.284,1.286,1.289,1.291,1.293,1.297,1.301,1.304,1.306,1.308,1.311,1.314,1.318,1.322,1.329,1.334,1.334,1.332,1.34,1.344,1.343,1.344,1.344,1.356,1.391,1.437,1.505,1.615,1.74,1.847,1.929,1.968,1.98,1.98,1.98,1.98,1.99,1.992,1.99,1.986,1.984,1.984,1.986,1.988,1.986,1.986,1.984,1.982,1.982,1.982,1.98,1.98,1.984,1.986,1.992,1.996,2.0,2.004,2.008,2.01,2.012,2.01,2.01,2.012,2.012,2.012,2.01,2.008,2.006,2.008,2.006,2.008,2.01,2.012,2.016,2.02,2.023,2.025,2.03,2.031,2.033,2.035,2.037,2.04,2.043,2.047,2.049,2.049,2.05,2.057,2.064,2.07,2.076,2.086,2.098,2.107,2.117,2.127,2.133,2.143,2.156,2.164,2.174,2.188,2.205,2.225,2.242,2.268,2.297,2.328,2.36,2.385,2.4,2.416,2.43,2.441,2.45,2.467,2.477,2.482,2.486,2.492,2.498,2.504,2.51,2.516,2.521,2.525,2.53,2.531,2.535,2.537,2.537,2.545,2.547,2.55,2.553,2.56,2.562,2.562,2.566,2.57,2.572,2.576,2.582,2.586,2.59,2.592,2.6,2.605,2.611,2.623,2.629,2.637,2.643,2.648,2.652,2.66,2.666,2.674,2.68,2.688,2.691,2.7,2.705,2.709,2.717,2.723,2.727,2.732,2.738,2.746,2.748,2.752,2.76,2.766,2.773,2.78,2.785,2.791,2.797,2.805,2.809,2.812,2.814,2.82,2.828,2.836,2.842,2.848,2.855,2.865,2.873,2.877,2.885,2.89,2.896,2.904,2.908,2.918,2.922,2.928,2.934,2.943,2.951,2.959,2.967,2.975,2.98,2.99,2.998,3.006,3.014,3.021,3.031,3.041,3.047,3.057,3.066,3.072,3.082,3.09,3.096,3.104,3.11,3.117,3.127,3.135,3.14,3.146,3.156,3.16,3.17,3.178,3.182,3.19,3.197,3.207,3.215,3.225,3.236,3.24,3.25,3.262,3.271,3.281,3.293,3.3,3.309,3.314,3.324,3.336,3.346,3.355,3.357,3.365,3.37,3.377,3.385,3.39,3.396,3.396,3.396,3.396,3.39,3.385,3.379,3.373,3.365,3.357,3.346,3.342,3.336,3.33,3.324,3.322,3.322,3.318,3.314,3.314,3.309,3.309,3.303,3.3,3.299,3.299,3.295,3.293,3.293,3.287,3.287,3.285,3.281,3.277,3.277,3.277,3.273,3.271,3.271,3.271,3.27,3.266,3.266,3.266,3.266,3.262,3.262,3.262,3.262,3.258,3.256,3.256,3.256,3.256,3.258,3.262,3.262,3.262,3.266,3.266,3.266,3.266,3.266,3.262,3.262,3.262,3.262,3.262,3.266,3.266,3.266,3.266,3.266,3.262,3.262,3.25,3.225,3.205,3.182,3.16,3.152,3.14,3.13,3.12,3.127,3.15,3.203,3.262,3.309,3.336,3.346,3.346,3.342,3.332,3.318,3.309,3.303,3.293,3.287,3.277,3.277,3.273,3.271,3.266,3.266,3.266,3.277,3.285,3.293,3.309,3.324,3.346,3.385,3.424,3.465,3.508,3.537,3.562,3.574,3.586,3.596,3.6,3.605,3.611,3.611,3.62,3.625,3.63,3.637,3.645,3.646,3.65,3.656,3.66,3.664,3.664,3.67,3.678,3.68,3.684,3.68,3.684,3.688,3.69,3.697,3.703,3.71,3.717,3.72,3.725,3.73,3.734,3.736,3.736,3.744,3.75,3.754,3.762
1.029,1.033,1.037,1.041,1.044,1.044,1.046,1.05,1.053,1.057,1.06,1.0625,1.066,1.073,1.078,1.081,1.084,1.087,1.09,1.093,1.095,1.098,1.101,1.103,1.1045,1.106,1.108,1.112,1.115,1.115,1.115,1.118,1.12,1.121,1.123,1.125,1.128,1.134,1.136,1.137,1.14,1.143,1.145,1.145,1.146,1.149,1.151,1.152,1.153,1.155,1.157,1.159,1.16,1.16,1.161,1.163,1.166,1.168,1.17,1.172,1.174,1.176,1.177,1.18,1.184,1.19,1.194,1.197,1.2,1.203,1.207,1.21,1.212,1.214,1.216,1.219,1.224,1.229,1.23,1.234,1.239,1.242,1.246,1.249,1.253,1.257,1.261,1.264,1.267,1.268,1.269,1.272,1.274,1.275,1.276,1.279,1.281,1.283,1.284,1.285,1.287,1.289,1.292,1.294,1.298,1.301,1.304,1.306,1.308,1.311,1.313,1.316,1.32,1.328,1.333,1.332,1.331,1.339,1.344,1.344,1.347,1.347,1.359,1.393,1.4375,1.498,1.608,1.7295,1.839,1.918,1.952,1.962,1.958,1.958,1.962,1.971,1.971,1.969,1.968,1.966,1.966,1.968,1.969,1.968,1.968,1.966,1.966,1.966,1.966,1.966,1.968,1.968,1.973,1.977,1.982,1.986,1.992,1.996,2.0,2.0,2.002,2.004,2.004,2.006,2.006,2.006,2.004,2.004,2.004,2.006,2.006,2.006,2.01,2.014,2.016,2.02,2.023,2.025,2.03,2.031,2.033,2.035,2.037,2.041,2.043,2.043,2.043,2.047,2.053,2.06,2.066,2.074,2.082,2.094,2.105,2.113,2.123,2.129,2.14,2.15,2.162,2.172,2.186,2.203,2.22,2.242,2.273,2.3,2.332,2.361,2.385,2.4,2.418,2.43,2.441,2.453,2.467,2.479,2.486,2.488,2.492,2.5,2.51,2.516,2.521,2.53,2.531,2.531,2.537,2.541,2.541,2.545,2.547,2.55,2.553,2.56,2.562,2.566,2.57,2.572,2.576,2.58,2.58,2.586,2.59,2.592,2.598,2.602,2.61,2.615,2.623,2.633,2.639,2.643,2.648,2.652,2.658,2.666,2.674,2.68,2.686,2.691,2.697,2.703,2.709,2.717,2.723,2.727,2.73,2.738,2.742,2.748,2.754,2.76,2.766,2.773,2.78,2.785,2.793,2.797,2.803,2.809,2.812,2.816,2.82,2.828,2.836,2.844,2.852,2.86,2.867,2.873,2.88,2.887,2.893,2.9,2.906,2.914,2.918,2.926,2.93,2.938,2.947,2.955,2.96,2.97,2.977,2.986,2.994,2.998,3.008,3.016,3.025,3.031,3.043,3.05,3.057,3.066,3.074,3.082,3.09,3.096,3.104,3.113,3.117,3.127,3.135,3.14,3.148,3.156,3.166,3.17,3.18,3.186,3.19,3.2,3.21,3.22,3.23,3.236,3.246,3.254,3.266,3.277,3.285,3.293,3.303,3.309,3.318,3.328,3.338,3.346,3.355,3.36,3.365,3.37,3.377,3.385,3.39,3.396,3.396,3.396,3.396,3.39,3.385,3.379,3.373,3.365,3.357,3.352,3.346,3.342,3.336,3.33,3.328,3.328,3.324,3.322,3.318,3.318,3.314,3.314,3.314,3.314,3.31,3.309,3.309,3.303,3.3,3.299,3.293,3.293,3.287,3.287,3.287,3.285,3.285,3.281,3.281,3.28,3.28,3.277,3.277,3.277,3.273,3.271,3.271,3.271,3.271,3.27,3.266,3.266,3.266,3.271,3.273,3.277,3.277,3.28,3.28,3.281,3.281,3.28,3.277,3.277,3.28,3.281,3.281,3.281,3.28,3.28,3.281,3.277,3.277,3.271,3.262,3.236,3.215,3.19,3.172,3.16,3.146,3.137,3.127,3.13,3.156,3.21,3.266,3.31,3.336,3.346,3.346,3.342,3.336,3.322,3.31,3.303,3.295,3.287,3.28,3.277,3.277,3.273,3.271,3.266,3.271,3.281,3.287,3.299,3.314,3.33,3.357,3.39,3.428,3.469,3.51,3.537,3.562,3.574,3.586,3.596,3.602,3.605,3.611,3.615,3.62,3.625,3.63,3.637,3.645,3.646,3.65,3.656,3.66,3.664,3.664,3.67,3.678,3.68,3.68,3.678,3.68,3.684,3.69,3.697,3.703,3.71,3.717,3.725,3.727,3.73,3.736,3.736,3.74,3.744,3.75,3.758,3.766
1.028,1.032,1.036,1.04,1.043,1.043,1.045,1.049,1.053,1.056,1.059,1.0625,1.066,1.072,1.077,1.08,1.083,1.087,1.09,1.092,1.095,1.097,1.099,1.102,1.104,1.105,1.107,1.112,1.113,1.113,1.115,1.118,1.12,1.121,1.122,1.124,1.127,1.132,1.135,1.137,1.139,1.142,1.144,1.145,1.146,1.148,1.15,1.151,1.153,1.154,1.156,1.158,1.159,1.16,1.16,1.162,1.164,1.166,1.169,1.172,1.174,1.174,1.177,1.179,1.184,1.189,1.193,1.197,1.2,1.202,1.205,1.209,1.212,1.213,1.216,1.219,1.223,1.227,1.23,1.233,1.238,1.242,1.245,1.249,1.253,1.256,1.26,1.264,1.265,1.267,1.269,1.271,1.272,1.274,1.276,1.278,1.28,1.282,1.283,1.284,1.286,1.289,1.291,1.293,1.297,1.301,1.304,1.305,1.306,1.31,1.3125,1.315,1.319,1.327,1.332,1.331,1.329,1.337,1.344,1.344,1.347,1.348,1.36,1.392,1.436,1.496,1.605,1.735,1.84,1.916,1.945,1.948,1.945,1.946,1.948,1.958,1.96,1.958,1.958,1.956,1.956,1.958,1.96,1.96,1.958,1.956,1.956,1.956,1.958,1.958,1.958,1.962,1.966,1.969,1.975,1.979,1.984,1.988,1.994,1.994,1.996,1.998,2.0,2.004,2.004,2.002,2.0,2.0,2.002,2.002,2.002,2.004,2.006,2.012,2.014,2.018,2.02,2.023,2.025,2.03,2.031,2.033,2.035,2.04,2.04,2.04,2.041,2.043,2.05,2.059,2.064,2.07,2.08,2.092,2.098,2.11,2.117,2.125,2.133,2.146,2.158,2.17,2.184,2.2,2.22,2.248,2.277,2.307,2.338,2.365,2.387,2.404,2.418,2.432,2.443,2.455,2.47,2.479,2.486,2.488,2.494,2.504,2.51,2.516,2.521,2.53,2.531,2.535,2.537,2.541,2.545,2.547,2.547,2.553,2.557,2.56,2.562,2.566,2.57,2.576,2.576,2.58,2.582,2.59,2.592,2.596,2.602,2.605,2.611,2.62,2.625,2.633,2.639,2.645,2.65,2.652,2.658,2.666,2.674,2.68,2.688,2.693,2.7,2.705,2.71,2.719,2.723,2.729,2.734,2.742,2.746,2.75,2.756,2.764,2.768,2.775,2.783,2.787,2.793,2.8,2.805,2.809,2.812,2.816,2.822,2.83,2.836,2.844,2.852,2.86,2.867,2.873,2.88,2.889,2.896,2.9,2.908,2.914,2.922,2.926,2.934,2.94,2.95,2.955,2.963,2.973,2.98,2.988,2.994,3.004,3.008,3.016,3.025,3.033,3.043,3.05,3.059,3.066,3.074,3.084,3.09,3.098,3.105,3.113,3.12,3.129,3.137,3.14,3.15,3.16,3.166,3.176,3.182,3.19,3.195,3.203,3.21,3.22,3.23,3.24,3.246,3.256,3.266,3.277,3.287,3.293,3.303,3.309,3.314,3.324,3.336,3.346,3.355,3.36,3.365,3.371,3.377,3.385,3.39,3.396,3.396,3.396,3.396,3.39,3.385,3.383,3.373,3.37,3.363,3.357,3.35,3.346,3.342,3.336,3.332,3.336,3.332,3.33,3.328,3.324,3.324,3.324,3.322,3.322,3.318,3.318,3.318,3.314,3.31,3.309,3.307,3.303,3.299,3.299,3.295,3.293,3.293,3.293,3.287,3.287,3.287,3.285,3.285,3.281,3.28,3.28,3.277,3.277,3.277,3.277,3.277,3.277,3.277,3.28,3.281,3.285,3.287,3.287,3.287,3.287,3.287,3.287,3.285,3.285,3.287,3.287,3.293,3.293,3.293,3.287,3.287,3.287,3.281,3.28,3.266,3.246,3.22,3.197,3.18,3.166,3.15,3.14,3.13,3.137,3.166,3.217,3.27,3.314,3.342,3.35,3.352,3.346,3.338,3.324,3.314,3.309,3.295,3.287,3.28,3.277,3.277,3.277,3.277,3.273,3.273,3.281,3.299,3.314,3.33,3.346,3.37,3.396,3.424,3.47,3.508,3.537,3.559,3.574,3.584,3.594,3.602,3.61,3.611,3.62,3.62,3.625,3.63,3.637,3.645,3.645,3.65,3.654,3.66,3.664,3.664,3.67,3.678,3.678,3.678,3.678,3.68,3.684,3.69,3.697,3.703,3.71,3.717,3.72,3.725,3.73,3.734,3.736,3.736,3.744,3.75,3.758,3.766
1.028,1.031,1.036,1.04,1.042,1.042,1.044,1.048,1.053,1.055,1.058,1.062,1.065,1.071,1.075,1.078,1.081,1.085,1.088,1.091,1.093,1.095,1.098,1.1,1.102,1.1045,1.106,1.109,1.112,1.112,1.112,1.115,1.118,1.119,1.121,1.122,1.125,1.129,1.132,1.134,1.137,1.14,1.141,1.142,1.144,1.146,1.148,1.15,1.15,1.153,1.154,1.156,1.157,1.157,1.159,1.16,1.163,1.166,1.167,1.17,1.172,1.174,1.176,1.178,1.181,1.1875,1.191,1.195,1.198,1.201,1.204,1.208,1.21,1.211,1.214,1.218,1.222,1.226,1.2295,1.233,1.236,1.24,1.243,1.247,1.251,1.255,1.259,1.261,1.264,1.265,1.268,1.2705,1.272,1.272,1.274,1.276,1.279,1.28,1.282,1.283,1.285,1.288,1.29,1.292,1.296,1.301,1.302,1.304,1.306,1.309,1.312,1.313,1.318,1.325,1.331,1.329,1.327,1.335,1.342,1.344,1.347,1.348,1.36,1.39,1.434,1.495,1.603,1.746,1.849,1.914,1.943,1.943,1.939,1.939,1.9375,1.948,1.956,1.954,1.952,1.948,1.948,1.952,1.954,1.952,1.952,1.948,1.948,1.948,1.948,1.95,1.952,1.956,1.96,1.966,1.969,1.975,1.979,1.984,1.988,1.99,1.992,1.994,1.996,2.0,2.0,2.0,1.996,1.996,1.998,1.998,2.0,2.0,2.004,2.008,2.012,2.014,2.018,2.02,2.023,2.025,2.03,2.031,2.033,2.035,2.035,2.037,2.04,2.041,2.047,2.055,2.06,2.066,2.074,2.088,2.096,2.107,2.113,2.12,2.13,2.143,2.154,2.164,2.182,2.2,2.219,2.25,2.281,2.309,2.338,2.365,2.387,2.406,2.42,2.432,2.441,2.459,2.473,2.482,2.488,2.492,2.494,2.504,2.514,2.52,2.525,2.531,2.531,2.537,2.541,2.545,2.545,2.547,2.547,2.553,2.557,2.562,2.562,2.566,2.572,2.576,2.58,2.58,2.584,2.59,2.592,2.598,2.602,2.61,2.613,2.62,2.627,2.637,2.64,2.646,2.65,2.652,2.66,2.67,2.676,2.684,2.691,2.695,2.701,2.709,2.713,2.72,2.727,2.73,2.738,2.746,2.748,2.756,2.76,2.766,2.771,2.777,2.783,2.79,2.795,2.8,2.805,2.809,2.814,2.816,2.824,2.832,2.84,2.846,2.854,2.86,2.87,2.877,2.883,2.889,2.896,2.9,2.908,2.914,2.92,2.926,2.934,2.94,2.95,2.955,2.963,2.973,2.977,2.988,2.994,3.004,3.008,3.016,3.025,3.031,3.041,3.047,3.057,3.066,3.074,3.084,3.09,3.098,3.105,3.113,3.12,3.129,3.137,3.143,3.152,3.16,3.168,3.176,3.186,3.19,3.195,3.205,3.215,3.223,3.23,3.24,3.246,3.256,3.266,3.277,3.287,3.293,3.303,3.309,3.314,3.324,3.336,3.346,3.352,3.357,3.365,3.37,3.377,3.385,3.39,3.396,3.396,3.396,3.396,3.39,3.389,3.385,3.379,3.371,3.37,3.363,3.355,3.35,3.346,3.342,3.338,3.338,3.338,3.336,3.332,3.33,3.33,3.33,3.328,3.324,3.324,3.324,3.322,3.318,3.314,3.314,3.314,3.309,3.309,3.307,3.303,3.3,3.299,3.299,3.293,3.293,3.293,3.287,3.287,3.287,3.287,3.287,3.285,3.287,3.287,3.285,3.287,3.281,3.285,3.287,3.287,3.293,3.293,3.287,3.287,3.293,3.293,3.293,3.287,3.287,3.287,3.293,3.293,3.295,3.295,3.293,3.293,3.287,3.285,3.281,3.27,3.25,3.23,3.205,3.186,3.168,3.156,3.146,3.14,3.143,3.17,3.229,3.277,3.324,3.346,3.355,3.357,3.352,3.342,3.33,3.318,3.314,3.303,3.293,3.285,3.281,3.281,3.281,3.281,3.281,3.281,3.293,3.309,3.318,3.336,3.352,3.37,3.396,3.424,3.47,3.508,3.533,3.555,3.574,3.58,3.594,3.6,3.605,3.62,3.62,3.62,3.621,3.625,3.63,3.637,3.64,3.645,3.65,3.656,3.656,3.664,3.67,3.67,3.674,3.674,3.674,3.678,3.684,3.688,3.693,3.697,3.703,3.71,3.717,3.717,3.725,3.73,3.73,3.734,3.736,3.744,3.75,3.758
1.027,1.031,1.035,1.039,1.042,1.041,1.043,1.047,1.051,1.054,1.057,1.061,1.063,1.069,1.074,1.077,1.08,1.084,1.087,1.09,1.092,1.094,1.096,1.098,1.101,1.103,1.1045,1.107,1.11,1.11,1.11,1.113,1.116,1.118,1.119,1.121,1.123,1.128,1.131,1.132,1.135,1.138,1.14,1.141,1.142,1.145,1.146,1.148,1.149,1.151,1.153,1.154,1.155,1.155,1.157,1.16,1.161,1.164,1.166,1.169,1.17,1.172,1.174,1.177,1.181,1.187,1.19,1.194,1.197,1.2,1.203,1.207,1.208,1.21,1.213,1.216,1.22,1.225,1.229,1.232,1.236,1.239,1.242,1.246,1.25,1.253,1.257,1.261,1.263,1.264,1.267,1.269,1.271,1.272,1.272,1.276,1.278,1.279,1.28,1.282,1.284,1.286,1.289,1.291,1.295,1.3,1.301,1.302,1.305,1.308,1.311,1.3125,1.317,1.325,1.329,1.329,1.327,1.333,1.341,1.344,1.347,1.348,1.359,1.389,1.432,1.496,1.61,1.76,1.856,1.914,1.939,1.939,1.934,1.934,1.932,1.941,1.948,1.95,1.948,1.946,1.946,1.948,1.948,1.946,1.946,1.943,1.943,1.943,1.945,1.946,1.946,1.95,1.956,1.962,1.966,1.971,1.975,1.98,1.984,1.986,1.988,1.99,1.994,1.996,2.0,1.996,1.994,1.994,1.994,1.994,1.994,1.996,1.998,2.004,2.006,2.01,2.014,2.016,2.02,2.023,2.025,2.03,2.031,2.033,2.033,2.035,2.035,2.04,2.043,2.053,2.059,2.064,2.072,2.082,2.092,2.104,2.11,2.115,2.127,2.14,2.15,2.162,2.18,2.197,2.219,2.254,2.283,2.31,2.338,2.365,2.39,2.406,2.42,2.43,2.443,2.46,2.473,2.482,2.488,2.492,2.498,2.506,2.516,2.521,2.53,2.531,2.535,2.537,2.541,2.545,2.547,2.547,2.55,2.553,2.557,2.562,2.566,2.57,2.572,2.576,2.58,2.582,2.586,2.59,2.594,2.6,2.605,2.611,2.617,2.623,2.629,2.637,2.643,2.65,2.652,2.656,2.664,2.67,2.68,2.688,2.691,2.7,2.705,2.709,2.717,2.723,2.73,2.736,2.742,2.748,2.754,2.76,2.766,2.77,2.775,2.78,2.787,2.791,2.797,2.8,2.807,2.81,2.816,2.82,2.824,2.832,2.84,2.848,2.854,2.86,2.87,2.877,2.883,2.889,2.896,2.9,2.908,2.914,2.92,2.926,2.934,2.94,2.947,2.955,2.963,2.973,2.977,2.986,2.994,2.998,3.008,3.016,3.025,3.031,3.041,3.047,3.057,3.066,3.072,3.084,3.09,3.098,3.105,3.113,3.121,3.13,3.137,3.146,3.152,3.16,3.17,3.178,3.186,3.19,3.195,3.205,3.215,3.223,3.23,3.24,3.246,3.256,3.266,3.277,3.285,3.293,3.3,3.307,3.314,3.324,3.336,3.342,3.352,3.357,3.363,3.37,3.377,3.385,3.39,3.396,3.396,3.396,3.396,3.39,3.389,3.385,3.379,3.373,3.37,3.363,3.357,3.355,3.35,3.346,3.342,3.346,3.342,3.342,3.336,3.336,3.336,3.332,3.332,3.33,3.33,3.328,3.324,3.324,3.318,3.318,3.318,3.314,3.314,3.314,3.31,3.309,3.307,3.303,3.3,3.299,3.295,3.295,3.295,3.293,3.293,3.293,3.293,3.293,3.293,3.293,3.293,3.293,3.293,3.293,3.295,3.295,3.299,3.295,3.295,3.299,3.295,3.293,3.293,3.287,3.293,3.293,3.295,3.299,3.299,3.295,3.293,3.287,3.281,3.281,3.27,3.254,3.232,3.21,3.19,3.172,3.16,3.15,3.146,3.15,3.18,3.236,3.287,3.33,3.352,3.363,3.363,3.357,3.346,3.338,3.33,3.322,3.314,3.303,3.293,3.287,3.287,3.287,3.287,3.293,3.293,3.307,3.318,3.33,3.342,3.355,3.371,3.396,3.424,3.465,3.5,3.531,3.555,3.568,3.578,3.586,3.594,3.602,3.611,3.611,3.611,3.611,3.62,3.625,3.629,3.63,3.637,3.645,3.65,3.65,3.656,3.664,3.666,3.67,3.67,3.666,3.67,3.678,3.684,3.688,3.69,3.697,3.703,3.707,3.71,3.717,3.72,3.725,3.727,3.73,3.736,3.744,3.75
1.026,1.03,1.034,1.038,1.04,1.04,1.042,1.047,1.05,1.053,1.056,1.059,1.0625,1.068,1.073,1.075,1.078,1.081,1.085,1.088,1.09,1.092,1.095,1.097,1.098,1.101,1.104,1.106,1.108,1.108,1.109,1.112,1.115,1.115,1.116,1.118,1.121,1.126,1.128,1.13,1.132,1.136,1.137,1.138,1.14,1.143,1.145,1.146,1.147,1.149,1.15,1.153,1.153,1.154,1.155,1.158,1.16,1.162,1.164,1.167,1.17,1.17,1.172,1.174,1.18,1.185,1.189,1.192,1.195,1.198,1.201,1.205,1.208,1.208,1.212,1.215,1.219,1.223,1.227,1.23,1.234,1.237,1.241,1.245,1.249,1.252,1.256,1.259,1.261,1.263,1.265,1.268,1.2705,1.271,1.272,1.275,1.276,1.278,1.279,1.281,1.283,1.285,1.288,1.29,1.294,1.298,1.301,1.301,1.304,1.306,1.31,1.312,1.316,1.325,1.331,1.331,1.33,1.335,1.344,1.347,1.35,1.35,1.36,1.388,1.429,1.499,1.625,1.769,1.86,1.912,1.9375,1.936,1.931,1.931,1.929,1.9375,1.946,1.95,1.948,1.945,1.945,1.946,1.946,1.945,1.943,1.941,1.941,1.943,1.943,1.945,1.946,1.95,1.956,1.96,1.966,1.968,1.973,1.977,1.984,1.986,1.986,1.99,1.994,1.996,1.998,1.994,1.99,1.99,1.99,1.988,1.988,1.99,1.992,1.996,2.0,2.002,2.006,2.01,2.014,2.018,2.021,2.025,2.027,2.031,2.033,2.033,2.035,2.037,2.043,2.05,2.057,2.062,2.07,2.08,2.088,2.098,2.107,2.113,2.12,2.135,2.146,2.158,2.176,2.195,2.219,2.254,2.283,2.31,2.338,2.365,2.387,2.406,2.416,2.43,2.443,2.459,2.473,2.479,2.486,2.488,2.494,2.504,2.516,2.521,2.53,2.531,2.535,2.535,2.541,2.545,2.545,2.547,2.547,2.553,2.557,2.56,2.562,2.566,2.572,2.576,2.58,2.582,2.586,2.59,2.596,2.602,2.605,2.611,2.62,2.623,2.633,2.639,2.645,2.65,2.652,2.658,2.664,2.674,2.68,2.688,2.695,2.7,2.705,2.713,2.72,2.727,2.734,2.74,2.746,2.752,2.76,2.766,2.771,2.775,2.78,2.783,2.791,2.795,2.797,2.803,2.809,2.812,2.816,2.82,2.824,2.834,2.84,2.848,2.855,2.86,2.87,2.877,2.883,2.889,2.896,2.9,2.908,2.914,2.92,2.926,2.932,2.938,2.947,2.955,2.96,2.97,2.977,2.986,2.994,2.998,3.008,3.014,3.021,3.03,3.04,3.047,3.055,3.064,3.07,3.082,3.09,3.096,3.105,3.113,3.121,3.13,3.137,3.146,3.152,3.16,3.17,3.178,3.186,3.19,3.195,3.205,3.215,3.223,3.23,3.24,3.246,3.256,3.266,3.273,3.281,3.293,3.299,3.303,3.314,3.318,3.33,3.342,3.346,3.352,3.36,3.37,3.373,3.379,3.385,3.39,3.39,3.39,3.39,3.389,3.385,3.383,3.377,3.373,3.37,3.365,3.363,3.357,3.352,3.35,3.35,3.35,3.346,3.342,3.342,3.342,3.342,3.336,3.336,3.332,3.33,3.33,3.328,3.324,3.324,3.322,3.318,3.318,3.318,3.318,3.318,3.314,3.314,3.314,3.309,3.309,3.303,3.303,3.303,3.303,3.303,3.303,3.303,3.303,3.307,3.307,3.303,3.303,3.3,3.3,3.303,3.303,3.303,3.303,3.303,3.303,3.3,3.299,3.295,3.293,3.293,3.293,3.295,3.299,3.295,3.293,3.293,3.287,3.281,3.28,3.27,3.256,3.236,3.21,3.193,3.176,3.166,3.156,3.152,3.16,3.19,3.248,3.295,3.342,3.357,3.37,3.37,3.365,3.355,3.346,3.338,3.332,3.324,3.318,3.309,3.299,3.299,3.299,3.299,3.3,3.307,3.314,3.328,3.336,3.346,3.357,3.371,3.396,3.422,3.459,3.498,3.531,3.555,3.568,3.574,3.58,3.586,3.6,3.605,3.605,3.6,3.605,3.605,3.611,3.62,3.625,3.63,3.637,3.645,3.646,3.65,3.656,3.66,3.664,3.664,3.66,3.664,3.67,3.678,3.68,3.684,3.69,3.697,3.7,3.703,3.71,3.71,3.717,3.717,3.725,3.73,3.736,3.744
1.026,1.03,1.034,1.038,1.041,1.041,1.042,1.047,1.05,1.053,1.056,1.059,1.063,1.068,1.072,1.075,1.078,1.082,1.085,1.088,1.09,1.092,1.095,1.097,1.099,1.102,1.104,1.106,1.108,1.108,1.109,1.112,1.115,1.116,1.118,1.119,1.121,1.126,1.129,1.131,1.134,1.137,1.138,1.139,1.141,1.143,1.145,1.146,1.148,1.15,1.151,1.153,1.154,1.154,1.156,1.158,1.16,1.163,1.166,1.168,1.17,1.17,1.173,1.174,1.18,1.186,1.189,1.192,1.195,1.198,1.201,1.205,1.207,1.208,1.212,1.215,1.219,1.224,1.227,1.23,1.233,1.237,1.241,1.245,1.248,1.252,1.256,1.259,1.261,1.263,1.265,1.268,1.269,1.271,1.272,1.274,1.276,1.278,1.279,1.281,1.282,1.285,1.287,1.289,1.293,1.297,1.3,1.301,1.304,1.306,1.309,1.312,1.315,1.325,1.331,1.332,1.331,1.336,1.345,1.348,1.351,1.351,1.36,1.388,1.428,1.504,1.637,1.774,1.867,1.912,1.934,1.932,1.929,1.927,1.925,1.934,1.943,1.943,1.943,1.939,1.939,1.939,1.939,1.939,1.939,1.9375,1.9375,1.939,1.941,1.943,1.943,1.946,1.952,1.958,1.962,1.966,1.969,1.975,1.98,1.984,1.984,1.99,1.992,1.996,1.996,1.992,1.99,1.988,1.986,1.986,1.986,1.986,1.988,1.99,1.994,1.996,2.0,2.006,2.01,2.014,2.018,2.021,2.023,2.025,2.027,2.03,2.031,2.033,2.04,2.047,2.055,2.059,2.066,2.074,2.086,2.094,2.104,2.107,2.117,2.129,2.143,2.156,2.174,2.193,2.217,2.25,2.283,2.31,2.338,2.365,2.387,2.404,2.418,2.43,2.443,2.46,2.473,2.482,2.486,2.488,2.494,2.506,2.516,2.521,2.53,2.531,2.535,2.537,2.541,2.545,2.547,2.547,2.55,2.553,2.56,2.562,2.566,2.57,2.572,2.58,2.58,2.584,2.59,2.592,2.6,2.602,2.61,2.615,2.623,2.627,2.633,2.639,2.646,2.652,2.656,2.66,2.666,2.674,2.68,2.688,2.693,2.7,2.705,2.713,2.72,2.729,2.734,2.742,2.748,2.756,2.764,2.768,2.775,2.78,2.783,2.787,2.793,2.797,2.8,2.805,2.81,2.814,2.816,2.82,2.826,2.834,2.84,2.848,2.855,2.863,2.87,2.877,2.883,2.889,2.896,2.9,2.908,2.914,2.92,2.926,2.932,2.938,2.947,2.955,2.96,2.97,2.977,2.986,2.992,2.998,3.006,3.012,3.021,3.027,3.04,3.043,3.053,3.06,3.07,3.08,3.09,3.096,3.105,3.113,3.121,3.13,3.137,3.146,3.152,3.16,3.17,3.178,3.186,3.19,3.195,3.205,3.215,3.22,3.23,3.236,3.246,3.254,3.262,3.271,3.281,3.287,3.295,3.303,3.309,3.318,3.324,3.336,3.342,3.352,3.357,3.365,3.371,3.377,3.383,3.389,3.39,3.39,3.39,3.385,3.385,3.379,3.377,3.371,3.37,3.365,3.363,3.36,3.357,3.352,3.352,3.352,3.352,3.346,3.346,3.342,3.342,3.338,3.336,3.332,3.33,3.33,3.328,3.324,3.322,3.322,3.318,3.318,3.318,3.318,3.318,3.318,3.314,3.314,3.314,3.314,3.31,3.31,3.31,3.31,3.314,3.314,3.31,3.314,3.314,3.314,3.314,3.31,3.309,3.309,3.31,3.314,3.31,3.309,3.307,3.307,3.307,3.303,3.299,3.295,3.299,3.299,3.299,3.299,3.299,3.295,3.293,3.287,3.287,3.281,3.271,3.256,3.24,3.215,3.195,3.18,3.166,3.16,3.158,3.166,3.197,3.256,3.303,3.346,3.363,3.371,3.373,3.373,3.365,3.352,3.346,3.342,3.332,3.324,3.318,3.314,3.307,3.303,3.307,3.309,3.31,3.318,3.33,3.336,3.346,3.355,3.37,3.385,3.414,3.447,3.492,3.525,3.549,3.562,3.57,3.578,3.58,3.594,3.6,3.6,3.594,3.596,3.6,3.605,3.61,3.615,3.621,3.63,3.63,3.637,3.645,3.65,3.654,3.656,3.656,3.656,3.66,3.664,3.67,3.674,3.678,3.684,3.69,3.693,3.697,3.7,3.703,3.707,3.71,3.713,3.717,3.727,3.73
1.026,1.03,1.034,1.038,1.04,1.041,1.042,1.047,1.05,1.053,1.056,1.059,1.0625,1.068,1.072,1.075,1.078,1.081,1.085,1.088,1.09,1.092,1.095,1.096,1.099,1.102,1.104,1.106,1.108,1.108,1.11,1.113,1.115,1.116,1.118,1.119,1.122,1.127,1.13,1.132,1.134,1.137,1.138,1.139,1.141,1.144,1.146,1.147,1.148,1.15,1.151,1.153,1.154,1.155,1.157,1.159,1.161,1.164,1.166,1.168,1.17,1.171,1.173,1.176,1.18,1.186,1.189,1.192,1.196,1.198,1.201,1.205,1.208,1.209,1.212,1.215,1.219,1.223,1.228,1.23,1.234,1.237,1.241,1.245,1.248,1.252,1.256,1.259,1.261,1.263,1.265,1.268,1.269,1.2705,1.272,1.274,1.276,1.278,1.279,1.281,1.282,1.284,1.286,1.289,1.292,1.297,1.3,1.301,1.302,1.305,1.308,1.31,1.313,1.322,1.329,1.33,1.33,1.335,1.342,1.347,1.351,1.35,1.359,1.386,1.428,1.507,1.644,1.777,1.868,1.912,1.931,1.929,1.921,1.919,1.918,1.929,1.934,1.9375,1.9375,1.934,1.932,1.934,1.934,1.934,1.934,1.934,1.934,1.936,1.9375,1.9375,1.939,1.943,1.948,1.952,1.958,1.962,1.966,1.971,1.977,1.98,1.982,1.986,1.99,1.994,1.994,1.99,1.986,1.986,1.984,1.984,1.982,1.982,1.984,1.986,1.99,1.992,1.996,2.002,2.006,2.01,2.014,2.018,2.02,2.023,2.023,2.025,2.027,2.03,2.033,2.041,2.049,2.055,2.06,2.07,2.076,2.088,2.096,2.1,2.11,2.125,2.14,2.15,2.17,2.193,2.217,2.248,2.283,2.314,2.34,2.367,2.39,2.41,2.42,2.436,2.45,2.467,2.479,2.486,2.492,2.494,2.5,2.51,2.521,2.53,2.535,2.537,2.541,2.545,2.547,2.55,2.553,2.553,2.557,2.56,2.562,2.566,2.57,2.572,2.58,2.582,2.586,2.59,2.592,2.598,2.602,2.605,2.611,2.62,2.625,2.63,2.637,2.643,2.65,2.652,2.66,2.664,2.67,2.676,2.682,2.688,2.695,2.701,2.709,2.715,2.72,2.73,2.738,2.746,2.748,2.756,2.764,2.771,2.775,2.78,2.783,2.79,2.795,2.797,2.8,2.807,2.812,2.816,2.82,2.82,2.828,2.836,2.842,2.85,2.855,2.865,2.871,2.877,2.885,2.89,2.896,2.902,2.908,2.918,2.922,2.926,2.934,2.94,2.95,2.955,2.963,2.973,2.977,2.986,2.994,2.998,3.006,3.012,3.021,3.03,3.04,3.047,3.053,3.06,3.07,3.08,3.09,3.096,3.105,3.113,3.121,3.13,3.14,3.146,3.152,3.16,3.17,3.18,3.186,3.19,3.197,3.205,3.215,3.223,3.23,3.236,3.246,3.254,3.262,3.271,3.28,3.287,3.295,3.303,3.309,3.318,3.324,3.336,3.342,3.35,3.357,3.365,3.371,3.377,3.383,3.389,3.39,3.39,3.39,3.39,3.385,3.383,3.379,3.373,3.37,3.37,3.365,3.363,3.36,3.357,3.357,3.357,3.357,3.352,3.35,3.346,3.346,3.346,3.342,3.342,3.336,3.336,3.332,3.33,3.328,3.324,3.324,3.322,3.322,3.322,3.318,3.318,3.318,3.318,3.314,3.314,3.314,3.314,3.314,3.314,3.314,3.314,3.314,3.318,3.318,3.318,3.314,3.314,3.31,3.31,3.314,3.314,3.314,3.31,3.309,3.309,3.309,3.307,3.303,3.299,3.299,3.299,3.3,3.3,3.299,3.299,3.295,3.293,3.293,3.287,3.277,3.262,3.242,3.22,3.2,3.182,3.168,3.16,3.16,3.17,3.205,3.262,3.307,3.346,3.37,3.373,3.379,3.379,3.37,3.357,3.35,3.346,3.336,3.33,3.324,3.318,3.309,3.307,3.309,3.309,3.314,3.322,3.328,3.332,3.342,3.346,3.357,3.373,3.402,3.436,3.482,3.516,3.547,3.562,3.568,3.574,3.574,3.586,3.594,3.594,3.594,3.594,3.594,3.6,3.605,3.61,3.615,3.625,3.629,3.63,3.637,3.64,3.646,3.65,3.65,3.65,3.654,3.656,3.664,3.666,3.67,3.678,3.68,3.684,3.688,3.69,3.697,3.697,3.7,3.703,3.71,3.717,3.725
1.026,1.03,1.034,1.037,1.04,1.04,1.042,1.047,1.05,1.053,1.055,1.059,1.0625,1.067,1.071,1.074,1.078,1.081,1.084,1.087,1.09,1.091,1.094,1.096,1.098,1.101,1.104,1.106,1.108,1.108,1.11,1.112,1.115,1.116,1.118,1.119,1.122,1.127,1.13,1.132,1.134,1.137,1.138,1.139,1.141,1.143,1.146,1.146,1.149,1.15,1.151,1.153,1.154,1.155,1.156,1.159,1.161,1.164,1.166,1.169,1.17,1.171,1.173,1.176,1.18,1.186,1.189,1.192,1.196,1.198,1.201,1.205,1.208,1.209,1.212,1.215,1.219,1.223,1.227,1.23,1.233,1.237,1.241,1.245,1.248,1.252,1.255,1.257,1.261,1.261,1.265,1.267,1.269,1.2705,1.271,1.274,1.276,1.278,1.279,1.28,1.282,1.284,1.286,1.288,1.292,1.296,1.298,1.301,1.302,1.304,1.306,1.309,1.312,1.32,1.327,1.328,1.328,1.334,1.342,1.347,1.35,1.35,1.358,1.385,1.426,1.509,1.645,1.776,1.867,1.907,1.929,1.923,1.916,1.912,1.914,1.925,1.931,1.931,1.931,1.931,1.931,1.931,1.931,1.931,1.931,1.931,1.931,1.934,1.936,1.936,1.936,1.939,1.946,1.948,1.954,1.958,1.962,1.968,1.975,1.977,1.98,1.984,1.986,1.99,1.992,1.986,1.984,1.984,1.982,1.98,1.979,1.979,1.98,1.984,1.986,1.988,1.992,1.996,2.002,2.006,2.01,2.014,2.016,2.018,2.02,2.02,2.023,2.023,2.03,2.035,2.043,2.05,2.057,2.064,2.072,2.082,2.088,2.092,2.104,2.117,2.133,2.148,2.168,2.188,2.215,2.242,2.281,2.314,2.34,2.371,2.395,2.416,2.426,2.443,2.459,2.473,2.488,2.494,2.498,2.5,2.504,2.516,2.53,2.535,2.541,2.545,2.547,2.55,2.553,2.557,2.56,2.56,2.562,2.566,2.57,2.572,2.576,2.58,2.582,2.586,2.59,2.592,2.598,2.602,2.605,2.611,2.617,2.623,2.629,2.637,2.64,2.648,2.652,2.658,2.664,2.666,2.674,2.68,2.688,2.691,2.7,2.703,2.709,2.719,2.727,2.734,2.742,2.746,2.752,2.76,2.766,2.771,2.777,2.78,2.785,2.791,2.797,2.797,2.8,2.809,2.812,2.816,2.82,2.824,2.828,2.836,2.844,2.852,2.855,2.865,2.873,2.879,2.887,2.893,2.896,2.904,2.912,2.918,2.922,2.928,2.934,2.94,2.95,2.955,2.963,2.97,2.977,2.986,2.992,2.998,3.006,3.012,3.021,3.027,3.037,3.043,3.053,3.06,3.07,3.08,3.09,3.096,3.105,3.113,3.121,3.13,3.14,3.146,3.152,3.16,3.17,3.18,3.186,3.19,3.197,3.205,3.215,3.223,3.23,3.236,3.242,3.25,3.262,3.27,3.277,3.287,3.293,3.299,3.307,3.314,3.318,3.33,3.338,3.346,3.352,3.363,3.37,3.373,3.379,3.385,3.39,3.39,3.39,3.39,3.385,3.383,3.379,3.373,3.37,3.37,3.37,3.365,3.363,3.36,3.36,3.363,3.36,3.357,3.355,3.352,3.352,3.35,3.346,3.346,3.342,3.342,3.338,3.336,3.33,3.33,3.328,3.324,3.324,3.324,3.322,3.322,3.318,3.318,3.318,3.318,3.314,3.314,3.314,3.314,3.314,3.314,3.314,3.314,3.318,3.318,3.314,3.31,3.31,3.31,3.314,3.314,3.314,3.31,3.309,3.309,3.309,3.307,3.3,3.299,3.299,3.3,3.3,3.303,3.3,3.299,3.295,3.299,3.299,3.293,3.281,3.266,3.248,3.225,3.203,3.186,3.17,3.16,3.166,3.172,3.21,3.262,3.31,3.352,3.37,3.379,3.385,3.385,3.377,3.363,3.352,3.346,3.342,3.336,3.33,3.324,3.314,3.309,3.314,3.314,3.318,3.324,3.328,3.33,3.338,3.342,3.346,3.365,3.39,3.43,3.469,3.508,3.537,3.555,3.562,3.568,3.568,3.574,3.586,3.586,3.584,3.586,3.586,3.59,3.594,3.6,3.605,3.611,3.62,3.625,3.625,3.63,3.637,3.64,3.64,3.64,3.645,3.65,3.654,3.656,3.66,3.664,3.67,3.674,3.678,3.68,3.684,3.688,3.69,3.693,3.697,3.703,3.71
1.026,1.03,1.034,1.037,1.04,1.04,1.042,1.046,1.05,1.052,1.055,1.059,1.062,1.067,1.071,1.074,1.077,1.081,1.084,1.087,1.09,1.091,1.093,1.095,1.098,1.101,1.103,1.106,1.107,1.108,1.109,1.112,1.115,1.116,1.118,1.12,1.122,1.127,1.131,1.132,1.134,1.137,1.138,1.139,1.141,1.144,1.146,1.147,1.148,1.15,1.152,1.153,1.155,1.156,1.157,1.159,1.161,1.164,1.166,1.169,1.17,1.171,1.174,1.176,1.18,1.186,1.189,1.192,1.196,1.198,1.201,1.205,1.208,1.209,1.212,1.216,1.219,1.223,1.228,1.23,1.233,1.237,1.24,1.244,1.248,1.252,1.255,1.257,1.26,1.261,1.264,1.267,1.269,1.269,1.271,1.274,1.276,1.276,1.279,1.281,1.283,1.284,1.286,1.288,1.292,1.296,1.298,1.301,1.302,1.304,1.306,1.308,1.312,1.319,1.326,1.327,1.327,1.333,1.34,1.346,1.35,1.35,1.357,1.382,1.421,1.505,1.632,1.767,1.86,1.901,1.921,1.916,1.908,1.907,1.91,1.916,1.921,1.925,1.925,1.925,1.923,1.925,1.927,1.925,1.927,1.927,1.929,1.931,1.934,1.932,1.934,1.9375,1.943,1.946,1.95,1.956,1.958,1.966,1.971,1.977,1.979,1.984,1.986,1.99,1.99,1.986,1.982,1.98,1.98,1.977,1.977,1.977,1.977,1.98,1.982,1.984,1.99,1.996,2.0,2.004,2.008,2.01,2.014,2.014,2.016,2.016,2.018,2.02,2.025,2.031,2.035,2.041,2.049,2.057,2.064,2.072,2.08,2.086,2.096,2.111,2.129,2.143,2.162,2.186,2.21,2.24,2.275,2.31,2.344,2.373,2.398,2.418,2.436,2.447,2.465,2.482,2.498,2.504,2.506,2.51,2.514,2.525,2.535,2.541,2.547,2.55,2.553,2.557,2.56,2.562,2.566,2.566,2.57,2.572,2.576,2.58,2.582,2.586,2.59,2.592,2.596,2.6,2.602,2.605,2.611,2.617,2.623,2.629,2.635,2.639,2.646,2.652,2.658,2.664,2.666,2.674,2.678,2.686,2.691,2.697,2.701,2.709,2.715,2.72,2.729,2.738,2.746,2.748,2.756,2.764,2.77,2.773,2.78,2.783,2.787,2.791,2.797,2.797,2.803,2.809,2.812,2.816,2.82,2.824,2.83,2.84,2.846,2.852,2.86,2.867,2.873,2.88,2.889,2.893,2.898,2.904,2.914,2.918,2.922,2.928,2.934,2.94,2.95,2.955,2.963,2.97,2.977,2.986,2.992,2.998,3.004,3.012,3.021,3.025,3.033,3.043,3.053,3.06,3.07,3.08,3.09,3.094,3.104,3.113,3.121,3.13,3.137,3.143,3.15,3.16,3.17,3.178,3.186,3.19,3.195,3.205,3.21,3.22,3.229,3.236,3.24,3.248,3.256,3.266,3.271,3.281,3.287,3.293,3.3,3.309,3.314,3.324,3.33,3.342,3.35,3.357,3.365,3.371,3.377,3.383,3.389,3.39,3.39,3.389,3.385,3.383,3.377,3.373,3.37,3.37,3.37,3.365,3.363,3.363,3.363,3.363,3.363,3.36,3.357,3.355,3.355,3.352,3.352,3.35,3.346,3.346,3.342,3.342,3.336,3.336,3.332,3.33,3.328,3.324,3.324,3.324,3.324,3.322,3.318,3.318,3.318,3.318,3.314,3.314,3.314,3.314,3.314,3.314,3.314,3.314,3.314,3.31,3.309,3.31,3.314,3.314,3.314,3.31,3.309,3.309,3.307,3.303,3.3,3.295,3.299,3.299,3.3,3.303,3.303,3.3,3.303,3.303,3.303,3.299,3.287,3.271,3.254,3.229,3.205,3.186,3.17,3.166,3.166,3.178,3.215,3.266,3.314,3.355,3.373,3.385,3.39,3.39,3.385,3.37,3.357,3.352,3.346,3.342,3.336,3.33,3.322,3.314,3.318,3.318,3.318,3.328,3.33,3.332,3.338,3.338,3.342,3.352,3.383,3.42,3.459,3.494,3.531,3.547,3.555,3.559,3.562,3.564,3.574,3.574,3.574,3.574,3.574,3.574,3.58,3.586,3.594,3.6,3.6,3.605,3.611,3.62,3.621,3.625,3.629,3.629,3.63,3.637,3.64,3.645,3.646,3.65,3.656,3.656,3.66,3.664,3.67,3.67,3.674,3.678,3.684,3.69,3.697
1.026,1.03,1.034,1.037,1.04,1.04,1.042,1.045,1.049,1.052,1.055,1.058,1.062,1.066,1.071,1.074,1.077,1.08,1.084,1.087,1.089,1.09,1.093,1.095,1.098,1.101,1.103,1.105,1.107,1.107,1.109,1.112,1.115,1.116,1.118,1.119,1.122,1.127,1.131,1.132,1.134,1.137,1.139,1.139,1.141,1.143,1.146,1.146,1.148,1.15,1.152,1.153,1.154,1.155,1.157,1.159,1.161,1.164,1.166,1.168,1.17,1.171,1.173,1.176,1.18,1.185,1.1875,1.192,1.195,1.197,1.201,1.205,1.207,1.208,1.212,1.215,1.219,1.223,1.227,1.23,1.233,1.237,1.24,1.244,1.248,1.251,1.255,1.257,1.26,1.261,1.264,1.265,1.269,1.269,1.271,1.272,1.276,1.276,1.279,1.28,1.282,1.283,1.285,1.287,1.291,1.296,1.298,1.301,1.301,1.304,1.306,1.308,1.312,1.318,1.325,1.327,1.328,1.334,1.34,1.345,1.349,1.349,1.355,1.38,1.417,1.494,1.611,1.755,1.852,1.895,1.916,1.91,1.903,1.901,1.901,1.91,1.916,1.919,1.919,1.919,1.919,1.919,1.921,1.921,1.921,1.921,1.925,1.927,1.931,1.931,1.931,1.934,1.939,1.946,1.948,1.952,1.956,1.964,1.971,1.975,1.977,1.982,1.984,1.986,1.986,1.982,1.98,1.977,1.977,1.975,1.973,1.975,1.975,1.979,1.98,1.984,1.988,1.994,1.998,2.004,2.006,2.008,2.01,2.012,2.014,2.014,2.016,2.016,2.02,2.025,2.031,2.035,2.041,2.05,2.057,2.066,2.072,2.082,2.092,2.107,2.125,2.143,2.162,2.186,2.209,2.238,2.271,2.307,2.34,2.373,2.398,2.418,2.436,2.45,2.465,2.486,2.5,2.504,2.51,2.514,2.516,2.525,2.537,2.545,2.55,2.553,2.557,2.56,2.562,2.566,2.57,2.57,2.572,2.576,2.58,2.58,2.586,2.59,2.592,2.596,2.6,2.602,2.605,2.611,2.615,2.62,2.625,2.633,2.637,2.643,2.648,2.652,2.66,2.664,2.67,2.674,2.68,2.688,2.693,2.7,2.705,2.709,2.717,2.723,2.73,2.738,2.746,2.75,2.756,2.764,2.771,2.775,2.78,2.783,2.787,2.793,2.797,2.8,2.803,2.809,2.814,2.82,2.824,2.826,2.832,2.84,2.846,2.854,2.86,2.87,2.873,2.88,2.889,2.893,2.898,2.904,2.914,2.918,2.922,2.928,2.934,2.94,2.95,2.955,2.963,2.973,2.977,2.986,2.992,2.998,3.006,3.012,3.021,3.027,3.033,3.043,3.053,3.06,3.07,3.08,3.09,3.096,3.104,3.113,3.121,3.13,3.137,3.143,3.15,3.16,3.17,3.178,3.186,3.19,3.195,3.205,3.21,3.22,3.229,3.236,3.24,3.248,3.256,3.266,3.271,3.281,3.287,3.293,3.3,3.309,3.314,3.322,3.33,3.342,3.35,3.36,3.37,3.373,3.379,3.385,3.39,3.39,3.39,3.39,3.389,3.385,3.379,3.373,3.371,3.37,3.37,3.37,3.37,3.365,3.365,3.37,3.37,3.365,3.363,3.363,3.363,3.363,3.36,3.357,3.357,3.355,3.352,3.35,3.346,3.346,3.342,3.342,3.338,3.336,3.336,3.336,3.336,3.33,3.33,3.328,3.324,3.322,3.318,3.318,3.318,3.318,3.318,3.318,3.318,3.318,3.318,3.314,3.314,3.314,3.318,3.318,3.318,3.314,3.31,3.309,3.309,3.307,3.303,3.299,3.299,3.3,3.303,3.307,3.303,3.303,3.309,3.309,3.309,3.303,3.293,3.277,3.258,3.232,3.205,3.186,3.17,3.166,3.168,3.18,3.223,3.271,3.318,3.357,3.373,3.389,3.396,3.39,3.389,3.373,3.363,3.357,3.352,3.346,3.342,3.336,3.324,3.318,3.322,3.322,3.324,3.33,3.33,3.332,3.336,3.336,3.332,3.342,3.371,3.41,3.453,3.488,3.52,3.537,3.547,3.553,3.553,3.555,3.568,3.568,3.564,3.562,3.564,3.564,3.568,3.574,3.578,3.586,3.586,3.594,3.596,3.6,3.605,3.611,3.611,3.611,3.62,3.621,3.625,3.629,3.63,3.637,3.64,3.645,3.645,3.65,3.654,3.656,3.656,3.66,3.664,3.674,3.678
1.026,1.029,1.033,1.036,1.04,1.04,1.041,1.045,1.048,1.051,1.055,1.058,1.062,1.066,1.07,1.073,1.077,1.08,1.083,1.086,1.088,1.09,1.092,1.095,1.097,1.1,1.102,1.1045,1.107,1.107,1.108,1.112,1.113,1.115,1.116,1.118,1.121,1.126,1.13,1.132,1.134,1.137,1.137,1.139,1.14,1.143,1.145,1.146,1.148,1.15,1.151,1.153,1.154,1.155,1.156,1.158,1.16,1.163,1.166,1.168,1.17,1.17,1.172,1.174,1.179,1.184,1.1875,1.19,1.194,1.197,1.2,1.204,1.205,1.208,1.211,1.214,1.218,1.222,1.226,1.2295,1.233,1.236,1.24,1.243,1.247,1.251,1.253,1.257,1.259,1.261,1.263,1.265,1.268,1.269,1.2705,1.272,1.275,1.276,1.278,1.28,1.281,1.282,1.284,1.287,1.29,1.295,1.298,1.301,1.301,1.302,1.306,1.308,1.311,1.318,1.325,1.327,1.328,1.334,1.34,1.344,1.348,1.349,1.355,1.377,1.413,1.4795,1.585,1.74,1.842,1.89,1.91,1.907,1.901,1.898,1.895,1.908,1.914,1.916,1.919,1.919,1.918,1.919,1.919,1.919,1.918,1.919,1.923,1.925,1.929,1.929,1.931,1.934,1.939,1.945,1.948,1.952,1.956,1.962,1.971,1.975,1.977,1.98,1.98,1.984,1.984,1.98,1.977,1.975,1.975,1.971,1.971,1.971,1.973,1.977,1.979,1.982,1.986,1.992,1.996,2.0,2.004,2.006,2.008,2.01,2.01,2.012,2.014,2.014,2.018,2.023,2.027,2.031,2.037,2.047,2.055,2.064,2.07,2.076,2.09,2.107,2.123,2.14,2.158,2.184,2.207,2.236,2.268,2.3,2.336,2.371,2.398,2.418,2.438,2.453,2.465,2.486,2.5,2.506,2.514,2.516,2.52,2.53,2.537,2.545,2.55,2.557,2.56,2.562,2.566,2.566,2.57,2.57,2.572,2.576,2.58,2.582,2.586,2.59,2.592,2.598,2.602,2.602,2.607,2.611,2.617,2.623,2.625,2.633,2.639,2.643,2.65,2.652,2.66,2.666,2.67,2.676,2.682,2.688,2.695,2.7,2.705,2.71,2.717,2.723,2.73,2.74,2.748,2.752,2.758,2.764,2.771,2.777,2.783,2.785,2.79,2.795,2.797,2.8,2.805,2.81,2.816,2.82,2.824,2.828,2.834,2.84,2.848,2.854,2.86,2.87,2.873,2.88,2.889,2.893,2.9,2.906,2.914,2.918,2.924,2.93,2.934,2.943,2.951,2.959,2.963,2.973,2.98,2.986,2.994,2.998,3.008,3.012,3.021,3.027,3.037,3.043,3.053,3.06,3.07,3.08,3.09,3.096,3.105,3.113,3.121,3.13,3.137,3.146,3.152,3.16,3.17,3.18,3.186,3.19,3.197,3.205,3.215,3.22,3.23,3.236,3.24,3.25,3.258,3.266,3.273,3.281,3.287,3.295,3.303,3.31,3.318,3.324,3.336,3.342,3.352,3.363,3.37,3.373,3.383,3.389,3.39,3.396,3.396,3.39,3.39,3.389,3.385,3.379,3.373,3.373,3.371,3.371,3.37,3.37,3.37,3.371,3.371,3.37,3.37,3.37,3.37,3.37,3.37,3.365,3.365,3.363,3.363,3.357,3.355,3.352,3.35,3.346,3.342,3.342,3.342,3.342,3.342,3.338,3.336,3.33,3.328,3.324,3.318,3.318,3.318,3.314,3.318,3.318,3.322,3.318,3.318,3.318,3.318,3.318,3.322,3.324,3.318,3.318,3.314,3.314,3.31,3.309,3.307,3.303,3.303,3.307,3.309,3.309,3.309,3.314,3.314,3.314,3.314,3.309,3.299,3.281,3.262,3.236,3.207,3.186,3.17,3.166,3.17,3.18,3.229,3.273,3.324,3.36,3.379,3.39,3.396,3.39,3.389,3.373,3.363,3.36,3.352,3.346,3.342,3.336,3.328,3.322,3.324,3.324,3.324,3.33,3.33,3.33,3.33,3.33,3.328,3.332,3.36,3.398,3.441,3.482,3.508,3.531,3.537,3.543,3.543,3.547,3.555,3.555,3.555,3.553,3.555,3.555,3.562,3.562,3.568,3.574,3.574,3.578,3.58,3.586,3.594,3.596,3.6,3.6,3.602,3.605,3.611,3.611,3.62,3.62,3.625,3.625,3.63,3.63,3.637,3.64,3.645,3.645,3.65,3.656,3.664
1.025,1.029,1.032,1.036,1.038,1.038,1.04,1.044,1.047,1.05,1.054,1.057,1.06,1.065,1.069,1.072,1.075,1.078,1.082,1.085,1.087,1.089,1.091,1.093,1.096,1.099,1.102,1.1045,1.106,1.106,1.107,1.11,1.113,1.115,1.116,1.118,1.121,1.125,1.129,1.131,1.134,1.136,1.137,1.138,1.14,1.142,1.145,1.146,1.146,1.149,1.15,1.152,1.153,1.153,1.155,1.157,1.16,1.162,1.164,1.167,1.169,1.17,1.171,1.174,1.178,1.184,1.1875,1.19,1.193,1.196,1.2,1.203,1.205,1.207,1.21,1.214,1.216,1.222,1.225,1.229,1.232,1.236,1.238,1.243,1.246,1.25,1.253,1.256,1.257,1.26,1.261,1.265,1.268,1.269,1.2705,1.272,1.274,1.276,1.276,1.279,1.281,1.282,1.283,1.285,1.289,1.294,1.296,1.3,1.301,1.302,1.305,1.306,1.31,1.318,1.324,1.326,1.327,1.333,1.34,1.343,1.347,1.349,1.3545,1.375,1.408,1.462,1.565,1.718,1.827,1.884,1.907,1.905,1.899,1.898,1.895,1.907,1.914,1.916,1.919,1.918,1.916,1.918,1.919,1.918,1.916,1.919,1.923,1.925,1.929,1.929,1.929,1.932,1.939,1.946,1.948,1.952,1.956,1.962,1.971,1.975,1.977,1.979,1.98,1.984,1.984,1.979,1.975,1.975,1.971,1.969,1.968,1.968,1.971,1.975,1.977,1.98,1.984,1.99,1.996,2.0,2.002,2.004,2.006,2.006,2.008,2.01,2.01,2.01,2.014,2.02,2.023,2.027,2.033,2.041,2.05,2.062,2.068,2.076,2.088,2.105,2.12,2.139,2.158,2.18,2.203,2.23,2.26,2.293,2.33,2.367,2.395,2.42,2.438,2.455,2.47,2.486,2.504,2.51,2.516,2.52,2.521,2.531,2.541,2.547,2.553,2.56,2.562,2.566,2.57,2.57,2.572,2.572,2.576,2.58,2.58,2.586,2.59,2.592,2.596,2.6,2.602,2.605,2.61,2.615,2.62,2.623,2.629,2.637,2.639,2.646,2.65,2.656,2.662,2.668,2.674,2.68,2.684,2.691,2.697,2.701,2.709,2.713,2.719,2.727,2.734,2.742,2.748,2.756,2.76,2.768,2.775,2.78,2.783,2.787,2.791,2.797,2.8,2.803,2.807,2.812,2.816,2.82,2.824,2.83,2.836,2.84,2.848,2.855,2.86,2.87,2.873,2.88,2.889,2.893,2.9,2.906,2.914,2.918,2.924,2.93,2.934,2.943,2.951,2.959,2.967,2.973,2.98,2.988,2.994,3.004,3.008,3.012,3.021,3.03,3.037,3.043,3.053,3.06,3.07,3.08,3.09,3.096,3.107,3.117,3.125,3.13,3.14,3.146,3.156,3.166,3.172,3.18,3.19,3.195,3.2,3.21,3.215,3.225,3.232,3.24,3.246,3.25,3.262,3.266,3.277,3.285,3.293,3.299,3.307,3.314,3.318,3.324,3.336,3.346,3.355,3.365,3.371,3.379,3.385,3.39,3.39,3.396,3.396,3.396,3.396,3.39,3.385,3.379,3.379,3.373,3.373,3.373,3.373,3.371,3.371,3.373,3.373,3.37,3.37,3.37,3.37,3.37,3.37,3.37,3.37,3.37,3.365,3.363,3.363,3.357,3.355,3.352,3.346,3.346,3.346,3.346,3.346,3.342,3.338,3.332,3.33,3.324,3.324,3.318,3.318,3.318,3.318,3.322,3.322,3.322,3.322,3.318,3.318,3.318,3.318,3.324,3.322,3.318,3.314,3.314,3.314,3.314,3.309,3.307,3.307,3.309,3.309,3.31,3.31,3.314,3.318,3.318,3.318,3.314,3.303,3.287,3.266,3.236,3.21,3.186,3.17,3.166,3.17,3.186,3.232,3.28,3.33,3.363,3.383,3.396,3.398,3.39,3.389,3.373,3.363,3.36,3.352,3.346,3.342,3.336,3.328,3.322,3.324,3.324,3.324,3.328,3.328,3.324,3.324,3.324,3.322,3.324,3.352,3.39,3.436,3.47,3.498,3.52,3.531,3.537,3.537,3.537,3.549,3.549,3.547,3.543,3.543,3.549,3.549,3.555,3.555,3.562,3.568,3.568,3.57,3.574,3.58,3.586,3.586,3.586,3.594,3.594,3.596,3.6,3.6,3.605,3.61,3.611,3.615,3.62,3.625,3.625,3.629,3.63,3.635,3.645,3.646
1.024,1.028,1.031,1.036,1.037,1.037,1.039,1.043,1.047,1.049,1.053,1.056,1.059,1.063,1.068,1.071,1.074,1.078,1.081,1.084,1.087,1.088,1.09,1.092,1.095,1.098,1.101,1.104,1.1045,1.105,1.107,1.109,1.112,1.113,1.115,1.116,1.12,1.125,1.128,1.13,1.132,1.134,1.136,1.137,1.138,1.141,1.143,1.145,1.146,1.147,1.15,1.15,1.152,1.153,1.154,1.156,1.158,1.161,1.164,1.166,1.168,1.169,1.17,1.173,1.177,1.183,1.186,1.189,1.191,1.195,1.198,1.202,1.204,1.207,1.209,1.213,1.216,1.222,1.225,1.229,1.23,1.234,1.238,1.242,1.246,1.249,1.253,1.256,1.257,1.259,1.261,1.264,1.267,1.269,1.2705,1.272,1.274,1.275,1.276,1.279,1.28,1.281,1.282,1.285,1.288,1.292,1.295,1.298,1.301,1.301,1.304,1.306,1.309,1.316,1.322,1.324,1.325,1.331,1.337,1.34,1.345,1.347,1.353,1.372,1.401,1.441,1.546,1.694,1.8125,1.875,1.903,1.903,1.898,1.898,1.895,1.901,1.914,1.916,1.919,1.916,1.916,1.916,1.916,1.916,1.916,1.918,1.921,1.925,1.927,1.925,1.927,1.931,1.9375,1.945,1.948,1.95,1.954,1.96,1.969,1.973,1.975,1.977,1.979,1.98,1.98,1.975,1.971,1.971,1.968,1.966,1.966,1.966,1.968,1.973,1.975,1.977,1.98,1.986,1.99,1.994,1.996,2.0,2.0,2.002,2.004,2.004,2.006,2.006,2.01,2.014,2.02,2.023,2.03,2.04,2.049,2.06,2.066,2.076,2.09,2.107,2.12,2.139,2.156,2.176,2.2,2.225,2.254,2.281,2.32,2.361,2.395,2.42,2.441,2.459,2.477,2.488,2.506,2.516,2.521,2.525,2.53,2.537,2.547,2.553,2.56,2.562,2.57,2.572,2.572,2.576,2.576,2.58,2.58,2.582,2.586,2.59,2.592,2.596,2.602,2.605,2.607,2.611,2.615,2.62,2.623,2.625,2.633,2.639,2.645,2.65,2.652,2.66,2.666,2.67,2.678,2.682,2.688,2.695,2.701,2.705,2.713,2.717,2.723,2.73,2.738,2.746,2.754,2.76,2.764,2.771,2.78,2.783,2.787,2.791,2.797,2.8,2.805,2.805,2.81,2.814,2.82,2.824,2.828,2.834,2.836,2.844,2.852,2.86,2.865,2.873,2.877,2.885,2.89,2.896,2.902,2.908,2.918,2.922,2.926,2.932,2.938,2.945,2.953,2.959,2.969,2.975,2.98,2.99,2.996,3.004,3.008,3.014,3.021,3.03,3.04,3.043,3.053,3.06,3.07,3.082,3.094,3.098,3.107,3.117,3.127,3.137,3.143,3.15,3.16,3.168,3.178,3.186,3.193,3.2,3.207,3.215,3.223,3.23,3.236,3.242,3.25,3.258,3.266,3.273,3.281,3.287,3.299,3.307,3.314,3.318,3.324,3.332,3.342,3.35,3.36,3.37,3.377,3.383,3.389,3.39,3.396,3.398,3.402,3.398,3.396,3.396,3.39,3.385,3.383,3.379,3.377,3.377,3.377,3.373,3.373,3.377,3.373,3.373,3.371,3.37,3.371,3.371,3.37,3.37,3.37,3.37,3.37,3.37,3.363,3.363,3.357,3.355,3.352,3.35,3.35,3.35,3.346,3.342,3.338,3.332,3.33,3.324,3.322,3.318,3.318,3.318,3.318,3.318,3.318,3.318,3.318,3.314,3.314,3.314,3.318,3.318,3.318,3.318,3.314,3.314,3.314,3.314,3.31,3.309,3.31,3.314,3.314,3.314,3.314,3.318,3.324,3.328,3.328,3.322,3.314,3.293,3.271,3.24,3.21,3.186,3.17,3.168,3.172,3.19,3.236,3.287,3.332,3.37,3.385,3.402,3.398,3.39,3.39,3.373,3.363,3.363,3.355,3.346,3.342,3.336,3.33,3.322,3.324,3.324,3.324,3.324,3.324,3.318,3.322,3.318,3.318,3.318,3.342,3.383,3.428,3.465,3.488,3.514,3.521,3.525,3.531,3.531,3.543,3.543,3.537,3.537,3.541,3.543,3.547,3.549,3.553,3.555,3.562,3.562,3.564,3.568,3.574,3.574,3.58,3.58,3.58,3.584,3.586,3.586,3.59,3.594,3.596,3.6,3.6,3.605,3.61,3.611,3.611,3.615,3.62,3.629,3.63
1.024,1.028,1.031,1.035,1.037,1.037,1.039,1.042,1.046,1.049,1.052,1.055,1.059,1.063,1.067,1.071,1.074,1.077,1.08,1.084,1.086,1.087,1.089,1.092,1.095,1.098,1.1,1.103,1.1045,1.1045,1.106,1.109,1.112,1.113,1.115,1.116,1.12,1.124,1.128,1.129,1.132,1.134,1.135,1.136,1.138,1.141,1.143,1.145,1.146,1.147,1.149,1.15,1.152,1.153,1.153,1.155,1.158,1.161,1.163,1.166,1.168,1.169,1.17,1.172,1.177,1.181,1.186,1.189,1.191,1.194,1.197,1.201,1.204,1.205,1.209,1.213,1.216,1.22,1.224,1.228,1.23,1.234,1.238,1.241,1.245,1.249,1.252,1.256,1.257,1.259,1.261,1.264,1.267,1.268,1.269,1.271,1.272,1.275,1.276,1.278,1.279,1.28,1.282,1.284,1.287,1.291,1.294,1.297,1.3,1.301,1.302,1.305,1.309,1.314,1.32,1.323,1.325,1.33,1.336,1.34,1.344,1.347,1.353,1.369,1.3955,1.429,1.5205,1.668,1.793,1.863,1.896,1.898,1.895,1.895,1.893,1.895,1.91,1.912,1.914,1.912,1.912,1.912,1.912,1.912,1.91,1.912,1.916,1.921,1.923,1.921,1.923,1.929,1.934,1.941,1.946,1.948,1.95,1.958,1.966,1.971,1.973,1.975,1.975,1.977,1.977,1.971,1.968,1.968,1.966,1.962,1.962,1.962,1.966,1.969,1.971,1.975,1.977,1.982,1.986,1.99,1.994,1.994,1.996,1.996,1.996,1.998,2.0,2.0,2.004,2.01,2.014,2.02,2.025,2.033,2.043,2.057,2.064,2.074,2.088,2.105,2.117,2.135,2.15,2.172,2.193,2.219,2.246,2.275,2.307,2.348,2.387,2.418,2.441,2.46,2.479,2.494,2.506,2.52,2.525,2.53,2.531,2.545,2.55,2.56,2.562,2.57,2.572,2.576,2.576,2.58,2.58,2.58,2.582,2.586,2.586,2.59,2.594,2.6,2.602,2.605,2.61,2.611,2.615,2.623,2.625,2.629,2.637,2.64,2.646,2.65,2.656,2.664,2.67,2.674,2.68,2.684,2.691,2.697,2.701,2.709,2.715,2.72,2.727,2.734,2.742,2.748,2.756,2.764,2.768,2.773,2.78,2.783,2.79,2.793,2.797,2.8,2.805,2.809,2.81,2.816,2.82,2.826,2.83,2.836,2.84,2.846,2.854,2.86,2.867,2.873,2.879,2.885,2.893,2.896,2.904,2.908,2.918,2.922,2.928,2.934,2.938,2.947,2.953,2.959,2.969,2.977,2.98,2.99,2.998,3.004,3.008,3.016,3.021,3.03,3.04,3.047,3.055,3.064,3.072,3.084,3.094,3.102,3.11,3.12,3.129,3.137,3.146,3.15,3.16,3.17,3.18,3.19,3.195,3.203,3.21,3.215,3.225,3.232,3.24,3.246,3.254,3.262,3.266,3.273,3.281,3.293,3.299,3.309,3.314,3.318,3.328,3.336,3.342,3.352,3.36,3.37,3.377,3.383,3.39,3.39,3.396,3.402,3.402,3.402,3.398,3.396,3.39,3.389,3.385,3.383,3.379,3.379,3.377,3.373,3.373,3.377,3.373,3.373,3.37,3.37,3.37,3.37,3.37,3.37,3.37,3.37,3.37,3.365,3.363,3.363,3.357,3.355,3.352,3.35,3.35,3.346,3.346,3.342,3.338,3.332,3.328,3.324,3.322,3.318,3.318,3.318,3.318,3.318,3.318,3.314,3.314,3.31,3.309,3.31,3.314,3.318,3.318,3.318,3.314,3.314,3.314,3.314,3.314,3.314,3.314,3.314,3.314,3.318,3.318,3.324,3.332,3.332,3.332,3.328,3.318,3.299,3.277,3.242,3.21,3.186,3.172,3.168,3.176,3.193,3.24,3.293,3.336,3.37,3.39,3.404,3.402,3.396,3.39,3.373,3.363,3.363,3.357,3.346,3.342,3.336,3.328,3.322,3.324,3.324,3.322,3.324,3.322,3.318,3.318,3.318,3.314,3.318,3.336,3.373,3.42,3.453,3.482,3.5,3.508,3.516,3.52,3.52,3.531,3.531,3.525,3.525,3.527,3.531,3.537,3.537,3.541,3.543,3.547,3.549,3.549,3.553,3.555,3.562,3.562,3.562,3.564,3.568,3.568,3.574,3.574,3.578,3.58,3.584,3.586,3.59,3.594,3.596,3.6,3.6,3.605,3.611,3.62
1.024,1.028,1.031,1.035,1.037,1.037,1.039,1.042,1.046,1.048,1.052,1.055,1.059,1.063,1.067,1.07,1.074,1.077,1.08,1.083,1.085,1.087,1.089,1.092,1.094,1.098,1.1,1.103,1.1045,1.1045,1.106,1.109,1.112,1.113,1.115,1.116,1.12,1.125,1.128,1.13,1.132,1.134,1.136,1.137,1.138,1.141,1.144,1.145,1.146,1.147,1.149,1.15,1.152,1.153,1.154,1.156,1.158,1.161,1.164,1.166,1.168,1.169,1.17,1.172,1.177,1.181,1.186,1.1875,1.191,1.194,1.197,1.201,1.204,1.205,1.209,1.212,1.216,1.22,1.224,1.228,1.23,1.233,1.237,1.241,1.245,1.248,1.252,1.255,1.257,1.257,1.261,1.263,1.265,1.268,1.269,1.271,1.272,1.275,1.276,1.278,1.28,1.28,1.282,1.284,1.287,1.291,1.294,1.297,1.3,1.301,1.304,1.306,1.31,1.315,1.32,1.323,1.325,1.331,1.336,1.34,1.345,1.349,1.354,1.367,1.391,1.419,1.496,1.643,1.774,1.855,1.891,1.895,1.893,1.893,1.891,1.893,1.905,1.91,1.91,1.908,1.907,1.908,1.91,1.908,1.908,1.91,1.914,1.919,1.921,1.919,1.921,1.925,1.932,1.939,1.943,1.946,1.948,1.958,1.966,1.969,1.971,1.971,1.975,1.977,1.975,1.969,1.966,1.966,1.962,1.96,1.958,1.958,1.964,1.968,1.969,1.971,1.975,1.98,1.984,1.986,1.99,1.992,1.994,1.994,1.994,1.994,1.996,1.996,2.0,2.004,2.01,2.016,2.023,2.03,2.04,2.053,2.062,2.072,2.086,2.1,2.113,2.13,2.146,2.168,2.188,2.21,2.24,2.268,2.299,2.332,2.375,2.41,2.436,2.459,2.479,2.494,2.51,2.516,2.525,2.53,2.535,2.545,2.553,2.56,2.566,2.57,2.572,2.576,2.576,2.58,2.58,2.58,2.582,2.586,2.586,2.59,2.592,2.598,2.602,2.605,2.61,2.611,2.615,2.623,2.625,2.629,2.635,2.639,2.646,2.65,2.656,2.662,2.666,2.674,2.678,2.684,2.688,2.695,2.701,2.709,2.717,2.72,2.727,2.734,2.742,2.748,2.756,2.76,2.766,2.771,2.78,2.783,2.79,2.793,2.797,2.8,2.805,2.807,2.81,2.814,2.82,2.824,2.828,2.834,2.84,2.844,2.852,2.86,2.865,2.873,2.877,2.885,2.89,2.896,2.902,2.908,2.918,2.922,2.928,2.934,2.938,2.947,2.953,2.959,2.969,2.975,2.98,2.99,2.996,3.004,3.008,3.014,3.021,3.03,3.037,3.043,3.053,3.06,3.07,3.082,3.09,3.098,3.107,3.117,3.127,3.137,3.14,3.148,3.158,3.168,3.178,3.186,3.193,3.2,3.207,3.215,3.223,3.23,3.236,3.242,3.25,3.258,3.266,3.271,3.281,3.287,3.295,3.303,3.31,3.318,3.324,3.33,3.342,3.346,3.357,3.37,3.373,3.379,3.389,3.39,3.396,3.398,3.402,3.402,3.398,3.396,3.396,3.39,3.385,3.385,3.379,3.379,3.377,3.377,3.373,3.377,3.373,3.371,3.37,3.37,3.37,3.37,3.37,3.363,3.363,3.365,3.365,3.363,3.363,3.36,3.357,3.355,3.352,3.35,3.346,3.346,3.346,3.342,3.336,3.332,3.33,3.328,3.324,3.324,3.322,3.318,3.318,3.322,3.318,3.318,3.314,3.314,3.31,3.314,3.314,3.318,3.318,3.318,3.318,3.318,3.318,3.318,3.318,3.314,3.318,3.318,3.318,3.318,3.318,3.328,3.336,3.336,3.336,3.33,3.318,3.299,3.277,3.24,3.21,3.186,3.17,3.166,3.172,3.195,3.242,3.293,3.342,3.373,3.39,3.404,3.402,3.39,3.389,3.373,3.363,3.363,3.357,3.346,3.342,3.336,3.324,3.322,3.324,3.322,3.318,3.322,3.318,3.314,3.314,3.314,3.314,3.314,3.33,3.363,3.408,3.445,3.47,3.488,3.494,3.5,3.504,3.508,3.52,3.516,3.514,3.514,3.514,3.516,3.52,3.525,3.525,3.531,3.531,3.533,3.533,3.531,3.537,3.537,3.543,3.543,3.543,3.549,3.549,3.553,3.555,3.555,3.562,3.564,3.568,3.57,3.574,3.578,3.58,3.58,3.586,3.594,3.6
1.023,1.027,1.03,1.034,1.037,1.037,1.038,1.042,1.045,1.048,1.051,1.055,1.058,1.0625,1.066,1.069,1.073,1.077,1.08,1.083,1.085,1.086,1.088,1.091,1.094,1.097,1.1,1.103,1.1045,1.1045,1.106,1.109,1.112,1.113,1.115,1.116,1.12,1.125,1.128,1.13,1.132,1.134,1.135,1.137,1.138,1.141,1.144,1.145,1.146,1.147,1.149,1.15,1.151,1.153,1.153,1.155,1.158,1.161,1.163,1.166,1.167,1.169,1.17,1.172,1.177,1.181,1.185,1.1875,1.191,1.194,1.197,1.201,1.203,1.205,1.208,1.212,1.216,1.219,1.223,1.227,1.23,1.233,1.236,1.24,1.244,1.247,1.251,1.255,1.257,1.257,1.26,1.263,1.265,1.267,1.269,1.271,1.272,1.275,1.276,1.278,1.279,1.28,1.282,1.283,1.286,1.29,1.293,1.296,1.298,1.301,1.304,1.306,1.31,1.315,1.321,1.324,1.326,1.332,1.336,1.34,1.345,1.349,1.3545,1.367,1.387,1.411,1.476,1.616,1.758,1.845,1.884,1.891,1.89,1.89,1.888,1.89,1.901,1.905,1.907,1.905,1.903,1.905,1.907,1.905,1.905,1.907,1.912,1.916,1.918,1.918,1.918,1.921,1.931,1.9375,1.943,1.946,1.948,1.956,1.964,1.968,1.969,1.971,1.973,1.975,1.971,1.968,1.964,1.962,1.96,1.958,1.958,1.958,1.962,1.966,1.968,1.971,1.973,1.977,1.98,1.984,1.986,1.988,1.99,1.99,1.988,1.99,1.99,1.99,1.994,1.998,2.004,2.012,2.02,2.027,2.037,2.05,2.06,2.07,2.086,2.098,2.113,2.129,2.146,2.164,2.186,2.207,2.236,2.264,2.293,2.324,2.365,2.4,2.43,2.455,2.477,2.494,2.51,2.52,2.525,2.531,2.535,2.545,2.55,2.56,2.562,2.566,2.57,2.572,2.576,2.576,2.58,2.58,2.58,2.582,2.586,2.59,2.59,2.596,2.6,2.602,2.607,2.611,2.615,2.62,2.623,2.625,2.633,2.637,2.643,2.648,2.652,2.658,2.664,2.67,2.674,2.68,2.686,2.693,2.7,2.705,2.713,2.72,2.723,2.73,2.738,2.746,2.752,2.758,2.764,2.77,2.775,2.78,2.785,2.791,2.795,2.797,2.8,2.805,2.809,2.812,2.816,2.824,2.828,2.832,2.836,2.844,2.852,2.86,2.865,2.871,2.877,2.883,2.889,2.893,2.9,2.908,2.914,2.92,2.926,2.932,2.938,2.945,2.951,2.959,2.967,2.975,2.98,2.988,2.994,3.004,3.006,3.012,3.021,3.027,3.033,3.043,3.05,3.06,3.07,3.08,3.09,3.096,3.105,3.113,3.125,3.135,3.14,3.148,3.156,3.166,3.176,3.186,3.193,3.2,3.207,3.215,3.223,3.23,3.24,3.242,3.25,3.258,3.266,3.273,3.281,3.287,3.299,3.307,3.314,3.318,3.324,3.332,3.342,3.35,3.357,3.37,3.373,3.379,3.385,3.39,3.396,3.402,3.402,3.404,3.402,3.398,3.396,3.39,3.389,3.385,3.383,3.379,3.379,3.377,3.377,3.379,3.373,3.371,3.37,3.37,3.37,3.37,3.365,3.363,3.363,3.363,3.363,3.363,3.363,3.363,3.357,3.355,3.352,3.352,3.346,3.346,3.346,3.342,3.338,3.336,3.33,3.33,3.328,3.324,3.324,3.324,3.324,3.324,3.324,3.322,3.318,3.314,3.314,3.318,3.318,3.318,3.318,3.318,3.318,3.318,3.322,3.318,3.318,3.318,3.318,3.322,3.322,3.322,3.322,3.33,3.342,3.342,3.338,3.332,3.318,3.303,3.277,3.24,3.21,3.186,3.168,3.166,3.176,3.203,3.248,3.299,3.342,3.377,3.396,3.408,3.402,3.39,3.389,3.373,3.363,3.363,3.357,3.346,3.342,3.336,3.324,3.318,3.322,3.318,3.318,3.318,3.318,3.314,3.314,3.31,3.309,3.31,3.324,3.357,3.398,3.436,3.459,3.47,3.482,3.488,3.494,3.494,3.508,3.5,3.494,3.494,3.498,3.5,3.508,3.508,3.514,3.514,3.516,3.52,3.52,3.516,3.516,3.52,3.521,3.525,3.525,3.531,3.531,3.537,3.537,3.541,3.543,3.547,3.549,3.553,3.555,3.562,3.562,3.562,3.568,3.574,3.58
1.023,1.026,1.029,1.034,1.036,1.036,1.038,1.042,1.045,1.048,1.051,1.055,1.058,1.0625,1.066,1.069,1.073,1.075,1.08,1.082,1.084,1.086,1.087,1.09,1.093,1.097,1.1,1.103,1.1045,1.1045,1.106,1.109,1.112,1.113,1.115,1.116,1.12,1.125,1.128,1.13,1.132,1.134,1.136,1.137,1.138,1.141,1.144,1.145,1.146,1.147,1.149,1.15,1.151,1.152,1.153,1.155,1.158,1.16,1.163,1.166,1.168,1.169,1.17,1.172,1.177,1.181,1.186,1.1875,1.191,1.194,1.197,1.201,1.203,1.205,1.208,1.211,1.215,1.219,1.223,1.226,1.2295,1.233,1.236,1.239,1.243,1.247,1.25,1.253,1.256,1.257,1.26,1.263,1.265,1.267,1.269,1.2705,1.272,1.274,1.276,1.276,1.278,1.279,1.281,1.283,1.285,1.289,1.292,1.295,1.297,1.301,1.302,1.306,1.31,1.314,1.321,1.325,1.327,1.332,1.336,1.34,1.347,1.351,1.357,1.369,1.386,1.407,1.46,1.593,1.743,1.837,1.879,1.886,1.886,1.886,1.884,1.886,1.898,1.899,1.901,1.899,1.898,1.899,1.901,1.901,1.901,1.903,1.907,1.912,1.914,1.914,1.916,1.919,1.927,1.934,1.939,1.943,1.946,1.954,1.962,1.966,1.968,1.968,1.969,1.971,1.969,1.966,1.96,1.958,1.958,1.956,1.954,1.956,1.958,1.962,1.966,1.968,1.971,1.975,1.977,1.98,1.982,1.984,1.984,1.984,1.984,1.984,1.984,1.984,1.986,1.994,2.0,2.008,2.016,2.025,2.035,2.049,2.059,2.07,2.084,2.098,2.113,2.129,2.146,2.164,2.186,2.209,2.232,2.26,2.29,2.32,2.357,2.395,2.424,2.453,2.477,2.498,2.51,2.52,2.521,2.53,2.531,2.545,2.55,2.557,2.56,2.562,2.566,2.57,2.57,2.572,2.576,2.576,2.58,2.58,2.58,2.584,2.586,2.592,2.596,2.602,2.605,2.607,2.611,2.617,2.62,2.623,2.627,2.633,2.639,2.643,2.65,2.656,2.66,2.666,2.67,2.676,2.68,2.688,2.697,2.703,2.709,2.717,2.72,2.727,2.734,2.742,2.748,2.754,2.76,2.766,2.771,2.78,2.783,2.787,2.791,2.797,2.8,2.8,2.805,2.81,2.816,2.822,2.828,2.832,2.836,2.844,2.85,2.855,2.865,2.871,2.877,2.88,2.889,2.893,2.898,2.904,2.914,2.918,2.924,2.93,2.934,2.943,2.951,2.955,2.963,2.973,2.98,2.986,2.994,2.998,3.004,3.01,3.018,3.025,3.033,3.041,3.047,3.059,3.066,3.078,3.086,3.094,3.104,3.113,3.121,3.13,3.14,3.146,3.156,3.166,3.176,3.186,3.193,3.2,3.21,3.215,3.225,3.232,3.24,3.246,3.254,3.262,3.27,3.277,3.287,3.293,3.303,3.31,3.314,3.324,3.33,3.336,3.342,3.352,3.36,3.37,3.377,3.383,3.385,3.39,3.396,3.402,3.404,3.404,3.402,3.402,3.396,3.396,3.39,3.39,3.385,3.385,3.383,3.379,3.379,3.379,3.377,3.373,3.37,3.37,3.37,3.37,3.37,3.365,3.365,3.365,3.365,3.365,3.365,3.363,3.363,3.357,3.357,3.352,3.352,3.35,3.346,3.346,3.342,3.338,3.336,3.336,3.332,3.33,3.33,3.33,3.33,3.33,3.33,3.328,3.324,3.322,3.318,3.318,3.324,3.324,3.324,3.324,3.324,3.324,3.324,3.324,3.322,3.322,3.324,3.324,3.324,3.324,3.328,3.336,3.346,3.342,3.342,3.336,3.324,3.303,3.28,3.246,3.21,3.186,3.17,3.17,3.178,3.21,3.254,3.307,3.346,3.385,3.408,3.41,3.404,3.396,3.389,3.373,3.363,3.363,3.357,3.35,3.342,3.332,3.322,3.322,3.318,3.318,3.318,3.318,3.314,3.314,3.309,3.31,3.309,3.309,3.322,3.352,3.39,3.424,3.447,3.459,3.47,3.475,3.477,3.482,3.492,3.486,3.482,3.482,3.482,3.488,3.494,3.494,3.494,3.5,3.5,3.5,3.5,3.5,3.5,3.504,3.508,3.508,3.508,3.514,3.516,3.52,3.521,3.525,3.525,3.531,3.531,3.537,3.537,3.543,3.543,3.543,3.549,3.555,3.562
1.023,1.027,1.03,1.034,1.037,1.037,1.038,1.042,1.045,1.048,1.051,1.055,1.058,1.0625,1.066,1.07,1.073,1.075,1.08,1.082,1.084,1.086,1.087,1.09,1.093,1.097,1.1,1.103,1.1045,1.105,1.106,1.109,1.112,1.113,1.115,1.118,1.12,1.125,1.129,1.131,1.132,1.134,1.136,1.137,1.139,1.142,1.145,1.145,1.146,1.148,1.15,1.151,1.152,1.153,1.154,1.156,1.158,1.161,1.164,1.166,1.168,1.169,1.17,1.173,1.177,1.181,1.186,1.1875,1.191,1.194,1.197,1.2,1.203,1.205,1.208,1.211,1.215,1.219,1.222,1.226,1.2295,1.232,1.236,1.238,1.242,1.246,1.25,1.253,1.255,1.256,1.259,1.261,1.264,1.265,1.268,1.269,1.272,1.274,1.275,1.276,1.278,1.279,1.281,1.282,1.285,1.289,1.291,1.294,1.297,1.3,1.302,1.306,1.31,1.314,1.32,1.324,1.327,1.332,1.336,1.34,1.347,1.353,1.358,1.369,1.385,1.402,1.448,1.57,1.7295,1.83,1.875,1.884,1.884,1.884,1.884,1.886,1.898,1.899,1.901,1.899,1.898,1.901,1.901,1.901,1.901,1.903,1.907,1.91,1.912,1.912,1.912,1.918,1.925,1.931,1.9375,1.939,1.943,1.952,1.958,1.964,1.966,1.966,1.968,1.968,1.966,1.962,1.958,1.956,1.954,1.952,1.952,1.952,1.956,1.958,1.96,1.964,1.966,1.969,1.971,1.975,1.977,1.977,1.977,1.977,1.977,1.979,1.98,1.98,1.982,1.99,1.996,2.004,2.014,2.021,2.031,2.043,2.057,2.066,2.08,2.096,2.111,2.127,2.143,2.162,2.182,2.205,2.23,2.254,2.281,2.309,2.346,2.39,2.42,2.45,2.477,2.494,2.51,2.52,2.53,2.531,2.535,2.545,2.55,2.557,2.56,2.562,2.566,2.57,2.57,2.572,2.572,2.576,2.576,2.58,2.58,2.582,2.586,2.59,2.596,2.602,2.602,2.607,2.611,2.617,2.62,2.623,2.625,2.633,2.637,2.643,2.65,2.656,2.66,2.664,2.67,2.674,2.68,2.688,2.695,2.701,2.709,2.715,2.72,2.727,2.734,2.742,2.748,2.756,2.76,2.766,2.771,2.78,2.783,2.787,2.791,2.797,2.8,2.803,2.807,2.812,2.816,2.822,2.828,2.832,2.836,2.844,2.852,2.855,2.865,2.871,2.877,2.88,2.887,2.893,2.896,2.904,2.914,2.918,2.922,2.93,2.934,2.943,2.95,2.955,2.963,2.97,2.977,2.986,2.992,2.998,3.004,3.01,3.016,3.025,3.031,3.041,3.047,3.057,3.066,3.074,3.084,3.094,3.104,3.113,3.12,3.129,3.137,3.143,3.152,3.166,3.176,3.186,3.19,3.2,3.205,3.215,3.223,3.23,3.24,3.246,3.25,3.262,3.266,3.277,3.285,3.293,3.3,3.309,3.314,3.322,3.33,3.336,3.342,3.352,3.36,3.37,3.373,3.379,3.385,3.39,3.396,3.402,3.404,3.408,3.404,3.402,3.398,3.396,3.396,3.39,3.39,3.389,3.385,3.385,3.383,3.383,3.379,3.373,3.371,3.37,3.37,3.37,3.37,3.37,3.37,3.37,3.37,3.37,3.365,3.363,3.363,3.357,3.357,3.352,3.352,3.35,3.346,3.346,3.342,3.338,3.336,3.336,3.332,3.33,3.33,3.33,3.33,3.33,3.33,3.328,3.324,3.322,3.322,3.324,3.324,3.324,3.328,3.328,3.324,3.328,3.324,3.324,3.324,3.324,3.328,3.328,3.33,3.33,3.33,3.342,3.346,3.346,3.346,3.342,3.324,3.307,3.281,3.242,3.21,3.186,3.17,3.168,3.178,3.215,3.258,3.309,3.352,3.385,3.408,3.414,3.404,3.396,3.389,3.373,3.363,3.36,3.357,3.346,3.342,3.33,3.318,3.318,3.318,3.314,3.314,3.314,3.314,3.309,3.309,3.309,3.309,3.309,3.318,3.352,3.389,3.42,3.436,3.447,3.459,3.463,3.465,3.47,3.477,3.47,3.469,3.469,3.469,3.475,3.477,3.482,3.482,3.482,3.486,3.486,3.486,3.482,3.482,3.488,3.488,3.492,3.494,3.498,3.5,3.504,3.504,3.508,3.508,3.514,3.514,3.52,3.52,3.521,3.525,3.525,3.527,3.537,3.543
1.023,1.027,1.03,1.034,1.037,1.037,1.037,1.042,1.045,1.048,1.05,1.054,1.058,1.0625,1.066,1.07,1.073,1.075,1.078,1.082,1.084,1.085,1.087,1.09,1.093,1.096,1.1,1.103,1.1045,1.105,1.107,1.109,1.112,1.113,1.116,1.118,1.121,1.125,1.129,1.131,1.134,1.135,1.137,1.137,1.139,1.142,1.145,1.146,1.146,1.148,1.15,1.151,1.152,1.153,1.154,1.156,1.159,1.161,1.164,1.166,1.168,1.169,1.17,1.172,1.177,1.181,1.185,1.1875,1.19,1.193,1.197,1.2,1.202,1.205,1.207,1.21,1.214,1.219,1.222,1.226,1.229,1.232,1.236,1.238,1.242,1.246,1.249,1.253,1.255,1.256,1.259,1.261,1.264,1.265,1.268,1.269,1.271,1.272,1.275,1.276,1.278,1.279,1.281,1.282,1.285,1.289,1.291,1.294,1.296,1.3,1.302,1.306,1.311,1.314,1.32,1.324,1.327,1.331,1.334,1.34,1.347,1.353,1.358,1.367,1.38,1.397,1.438,1.554,1.717,1.822,1.868,1.881,1.881,1.883,1.883,1.884,1.898,1.901,1.901,1.901,1.899,1.901,1.903,1.903,1.901,1.903,1.907,1.91,1.912,1.912,1.912,1.916,1.921,1.931,1.934,1.9375,1.941,1.948,1.956,1.96,1.962,1.962,1.964,1.966,1.962,1.958,1.956,1.952,1.952,1.95,1.948,1.948,1.952,1.956,1.956,1.958,1.962,1.966,1.968,1.969,1.971,1.971,1.971,1.971,1.971,1.975,1.975,1.977,1.98,1.986,1.992,2.0,2.01,2.018,2.027,2.04,2.05,2.06,2.074,2.09,2.105,2.12,2.139,2.158,2.176,2.2,2.225,2.246,2.275,2.3,2.336,2.38,2.416,2.447,2.473,2.494,2.51,2.52,2.53,2.531,2.537,2.547,2.55,2.557,2.56,2.562,2.566,2.57,2.57,2.572,2.572,2.576,2.576,2.58,2.58,2.584,2.586,2.592,2.596,2.602,2.605,2.607,2.611,2.617,2.62,2.623,2.625,2.63,2.637,2.643,2.65,2.652,2.66,2.664,2.67,2.674,2.68,2.688,2.695,2.703,2.709,2.715,2.723,2.727,2.736,2.746,2.752,2.758,2.764,2.768,2.773,2.78,2.785,2.787,2.793,2.797,2.8,2.803,2.807,2.812,2.816,2.822,2.828,2.832,2.836,2.844,2.852,2.855,2.865,2.871,2.877,2.88,2.887,2.893,2.896,2.904,2.914,2.918,2.924,2.93,2.934,2.943,2.95,2.955,2.963,2.97,2.977,2.986,2.992,2.998,3.004,3.01,3.016,3.025,3.031,3.04,3.047,3.057,3.066,3.074,3.084,3.094,3.102,3.11,3.117,3.127,3.137,3.14,3.15,3.16,3.17,3.182,3.19,3.195,3.205,3.21,3.22,3.23,3.236,3.24,3.25,3.256,3.266,3.271,3.281,3.287,3.299,3.307,3.314,3.318,3.324,3.332,3.342,3.35,3.357,3.37,3.373,3.379,3.385,3.39,3.396,3.402,3.408,3.408,3.408,3.404,3.402,3.402,3.398,3.396,3.39,3.39,3.389,3.385,3.385,3.385,3.379,3.377,3.373,3.37,3.37,3.37,3.37,3.37,3.37,3.37,3.37,3.37,3.365,3.365,3.363,3.357,3.357,3.355,3.352,3.35,3.346,3.346,3.342,3.338,3.336,3.336,3.336,3.332,3.332,3.33,3.33,3.33,3.33,3.33,3.328,3.324,3.324,3.324,3.328,3.33,3.33,3.33,3.328,3.33,3.33,3.328,3.328,3.328,3.33,3.33,3.33,3.332,3.332,3.342,3.352,3.352,3.35,3.342,3.328,3.307,3.281,3.242,3.207,3.18,3.166,3.166,3.176,3.215,3.258,3.309,3.352,3.389,3.408,3.408,3.402,3.39,3.383,3.371,3.36,3.357,3.352,3.346,3.336,3.324,3.318,3.314,3.314,3.309,3.309,3.309,3.307,3.303,3.303,3.303,3.307,3.31,3.324,3.352,3.383,3.408,3.428,3.436,3.447,3.447,3.453,3.457,3.459,3.457,3.453,3.453,3.453,3.459,3.465,3.465,3.47,3.469,3.469,3.47,3.465,3.465,3.469,3.47,3.47,3.477,3.477,3.48,3.482,3.486,3.488,3.488,3.492,3.494,3.494,3.498,3.5,3.5,3.504,3.508,3.508,3.516,3.521
1.023,1.027,1.03,1.034,1.037,1.037,1.037,1.042,1.045,1.048,1.05,1.054,1.058,1.0625,1.066,1.069,1.073,1.075,1.078,1.082,1.084,1.085,1.087,1.09,1.093,1.097,1.1,1.103,1.1045,1.105,1.107,1.11,1.112,1.113,1.116,1.118,1.121,1.126,1.129,1.132,1.134,1.135,1.137,1.137,1.14,1.142,1.145,1.146,1.147,1.149,1.15,1.151,1.153,1.153,1.154,1.156,1.159,1.161,1.164,1.166,1.168,1.169,1.17,1.172,1.177,1.181,1.185,1.1875,1.19,1.193,1.197,1.2,1.202,1.204,1.207,1.209,1.214,1.219,1.222,1.225,1.229,1.232,1.234,1.238,1.242,1.245,1.25,1.253,1.253,1.256,1.257,1.261,1.264,1.265,1.268,1.269,1.272,1.272,1.275,1.276,1.278,1.279,1.281,1.282,1.285,1.289,1.291,1.294,1.296,1.3,1.302,1.306,1.311,1.315,1.32,1.324,1.327,1.329,1.333,1.339,1.346,1.352,1.357,1.365,1.377,1.391,1.43,1.542,1.702,1.815,1.863,1.877,1.879,1.883,1.883,1.886,1.896,1.903,1.903,1.903,1.901,1.903,1.905,1.903,1.903,1.907,1.907,1.91,1.912,1.912,1.912,1.916,1.921,1.929,1.932,1.936,1.939,1.946,1.954,1.956,1.958,1.958,1.96,1.962,1.96,1.956,1.952,1.95,1.948,1.946,1.946,1.948,1.95,1.952,1.952,1.954,1.956,1.96,1.962,1.964,1.964,1.966,1.966,1.964,1.966,1.968,1.971,1.971,1.975,1.98,1.988,1.996,2.004,2.014,2.023,2.033,2.043,2.055,2.066,2.084,2.098,2.113,2.135,2.156,2.176,2.195,2.217,2.242,2.271,2.297,2.33,2.375,2.412,2.441,2.47,2.492,2.506,2.516,2.53,2.531,2.537,2.547,2.553,2.553,2.56,2.562,2.566,2.57,2.572,2.572,2.576,2.576,2.58,2.58,2.582,2.586,2.59,2.592,2.598,2.602,2.605,2.61,2.611,2.62,2.623,2.623,2.625,2.629,2.637,2.643,2.65,2.652,2.66,2.664,2.67,2.674,2.68,2.688,2.7,2.705,2.709,2.717,2.723,2.73,2.738,2.746,2.752,2.76,2.764,2.768,2.775,2.78,2.785,2.79,2.793,2.797,2.8,2.803,2.807,2.812,2.816,2.822,2.828,2.832,2.836,2.844,2.85,2.855,2.865,2.87,2.877,2.88,2.887,2.893,2.896,2.904,2.912,2.918,2.922,2.928,2.934,2.943,2.95,2.955,2.96,2.97,2.977,2.986,2.992,2.998,3.004,3.008,3.016,3.025,3.03,3.04,3.047,3.055,3.064,3.072,3.082,3.09,3.098,3.107,3.117,3.125,3.13,3.14,3.148,3.16,3.17,3.18,3.186,3.193,3.2,3.21,3.217,3.225,3.232,3.24,3.246,3.25,3.262,3.266,3.277,3.285,3.293,3.299,3.307,3.314,3.318,3.328,3.336,3.346,3.352,3.363,3.371,3.377,3.385,3.389,3.396,3.402,3.408,3.408,3.408,3.408,3.404,3.402,3.398,3.396,3.39,3.39,3.39,3.385,3.385,3.385,3.379,3.377,3.373,3.37,3.37,3.37,3.37,3.37,3.37,3.37,3.37,3.37,3.365,3.365,3.363,3.357,3.357,3.355,3.352,3.35,3.346,3.346,3.342,3.342,3.338,3.336,3.336,3.336,3.336,3.332,3.332,3.332,3.332,3.33,3.33,3.324,3.324,3.328,3.33,3.33,3.33,3.33,3.33,3.33,3.33,3.33,3.33,3.33,3.332,3.332,3.332,3.336,3.336,3.346,3.355,3.352,3.352,3.346,3.328,3.309,3.281,3.242,3.205,3.178,3.166,3.166,3.176,3.215,3.262,3.309,3.352,3.389,3.402,3.408,3.396,3.389,3.377,3.37,3.355,3.352,3.346,3.342,3.33,3.318,3.31,3.309,3.309,3.303,3.3,3.3,3.299,3.299,3.299,3.299,3.303,3.31,3.324,3.352,3.377,3.402,3.42,3.43,3.434,3.436,3.436,3.441,3.441,3.441,3.441,3.436,3.44,3.445,3.447,3.453,3.453,3.453,3.453,3.447,3.447,3.447,3.451,3.453,3.457,3.459,3.459,3.465,3.465,3.47,3.47,3.47,3.47,3.475,3.477,3.477,3.482,3.482,3.482,3.486,3.488,3.494,3.5
1.023,1.027,1.03,1.034,1.037,1.037,1.038,1.042,1.046,1.048,1.051,1.055,1.058,1.0625,1.066,1.07,1.073,1.075,1.078,1.082,1.084,1.085,1.087,1.09,1.093,1.097,1.1,1.104,1.105,1.105,1.107,1.11,1.112,1.115,1.116,1.119,1.121,1.127,1.13,1.132,1.134,1.136,1.137,1.139,1.141,1.144,1.145,1.146,1.147,1.149,1.15,1.152,1.153,1.154,1.155,1.157,1.159,1.161,1.164,1.166,1.168,1.169,1.17,1.172,1.177,1.181,1.185,1.1875,1.19,1.193,1.196,1.2,1.202,1.204,1.207,1.209,1.214,1.218,1.222,1.225,1.229,1.23,1.234,1.238,1.242,1.245,1.249,1.253,1.255,1.256,1.259,1.261,1.264,1.265,1.268,1.269,1.272,1.274,1.276,1.278,1.279,1.279,1.281,1.283,1.285,1.289,1.292,1.294,1.296,1.3,1.304,1.306,1.311,1.314,1.32,1.324,1.326,1.329,1.332,1.338,1.345,1.352,1.356,1.362,1.374,1.386,1.423,1.532,1.687,1.811,1.86,1.875,1.881,1.884,1.884,1.89,1.895,1.907,1.905,1.905,1.903,1.907,1.907,1.907,1.907,1.908,1.91,1.912,1.916,1.912,1.912,1.916,1.923,1.929,1.932,1.9375,1.939,1.946,1.954,1.956,1.956,1.956,1.958,1.96,1.958,1.954,1.952,1.95,1.948,1.948,1.948,1.948,1.95,1.952,1.952,1.954,1.956,1.956,1.958,1.958,1.958,1.958,1.958,1.956,1.956,1.96,1.964,1.966,1.971,1.977,1.984,1.99,2.0,2.008,2.018,2.03,2.04,2.05,2.064,2.076,2.094,2.111,2.129,2.154,2.174,2.193,2.217,2.24,2.268,2.293,2.324,2.373,2.41,2.441,2.47,2.492,2.506,2.52,2.53,2.535,2.545,2.55,2.56,2.557,2.562,2.566,2.57,2.572,2.572,2.576,2.58,2.58,2.582,2.582,2.586,2.59,2.592,2.598,2.602,2.605,2.61,2.613,2.62,2.623,2.625,2.625,2.629,2.633,2.637,2.645,2.65,2.656,2.662,2.666,2.67,2.678,2.684,2.693,2.701,2.709,2.713,2.72,2.727,2.732,2.74,2.748,2.756,2.76,2.766,2.771,2.775,2.78,2.785,2.79,2.795,2.797,2.8,2.803,2.807,2.812,2.816,2.82,2.826,2.832,2.836,2.842,2.85,2.855,2.863,2.87,2.873,2.879,2.885,2.893,2.896,2.902,2.908,2.914,2.922,2.928,2.934,2.938,2.947,2.953,2.959,2.969,2.977,2.98,2.99,2.994,2.998,3.006,3.012,3.021,3.027,3.033,3.043,3.053,3.06,3.07,3.078,3.084,3.094,3.104,3.113,3.117,3.127,3.137,3.143,3.156,3.166,3.176,3.182,3.19,3.195,3.205,3.215,3.22,3.225,3.232,3.24,3.246,3.25,3.258,3.266,3.273,3.281,3.287,3.299,3.303,3.314,3.318,3.328,3.338,3.346,3.357,3.37,3.373,3.379,3.385,3.39,3.398,3.404,3.408,3.408,3.408,3.402,3.402,3.396,3.396,3.39,3.389,3.389,3.385,3.383,3.379,3.377,3.373,3.37,3.37,3.37,3.37,3.37,3.37,3.37,3.365,3.365,3.363,3.363,3.363,3.36,3.357,3.355,3.352,3.352,3.35,3.346,3.346,3.342,3.342,3.338,3.338,3.336,3.336,3.336,3.336,3.336,3.336,3.336,3.336,3.332,3.33,3.33,3.33,3.332,3.332,3.332,3.332,3.33,3.33,3.33,3.33,3.33,3.33,3.336,3.332,3.332,3.336,3.336,3.346,3.357,3.357,3.352,3.346,3.33,3.309,3.28,3.24,3.205,3.176,3.16,3.16,3.172,3.215,3.262,3.309,3.352,3.389,3.398,3.402,3.396,3.379,3.371,3.36,3.35,3.346,3.342,3.336,3.322,3.309,3.303,3.303,3.299,3.293,3.293,3.293,3.287,3.287,3.293,3.293,3.299,3.309,3.324,3.346,3.37,3.39,3.408,3.42,3.42,3.42,3.424,3.428,3.428,3.43,3.424,3.424,3.424,3.43,3.434,3.436,3.436,3.436,3.434,3.43,3.434,3.434,3.434,3.436,3.436,3.441,3.441,3.445,3.447,3.447,3.447,3.451,3.453,3.453,3.457,3.459,3.459,3.463,3.465,3.465,3.47,3.477,3.48
