0.936,0.9272,0.928,0.9277,0.9297,0.9316,0.939,0.954,0.9673,0.98,0.9946,1.008,1.017,1.025,1.032,1.04,1.045,1.055,1.062,1.0625,1.07,1.079,1.088,1.087,1.113,1.133,1.132,1.119,1.147,1.225,1.361,1.546,1.634,1.677,1.686,1.692,1.701,1.704,1.695,1.699,1.702,1.707,1.712,1.714,1.716,1.721,1.727,1.73,1.735,1.736,1.74,1.745,1.75,1.753,1.757,1.763,1.766,1.7705,1.774,1.781,1.785,1.792,1.802,1.8125,1.819,1.825,1.829,1.832,1.84,1.845,1.848,1.853,1.856,1.86,1.863,1.869,1.874,1.879,1.887,1.891,1.8955,1.902,1.907,1.912,1.921,1.93,1.937,1.944,1.95,1.955,1.964,1.968,1.974,1.9795,1.987,1.993,1.997,2.006,2.014,2.021,2.03,2.037,2.045,2.053,2.059,2.064,2.068,2.074,2.084,2.088,2.092,2.094,2.098,2.105,2.11,2.113,2.117,2.121,2.123,2.127,2.129,2.127,2.129,2.129,2.129,2.13,2.135,2.137,2.137,2.137,2.139,2.139,2.137,2.137,2.139,2.139,2.139,2.139,2.139,2.139,2.139,2.139,2.137,2.137,2.139,2.137,2.137,2.137,2.135,2.135,2.135,2.133,2.13,2.13,2.13,2.133,2.129,2.129,2.129,2.127,2.129,2.129,2.129,2.127,2.127,2.127,2.125,2.123,2.123,2.123,2.121,2.121,2.12,2.115,2.115,2.115,2.113,2.111,2.111,2.111,2.111,2.111,2.111,2.111,2.111,2.111,2.111,2.111,2.11,2.11,2.11,2.11,2.107,2.104,2.104,2.105,2.107,2.105,2.105,2.105,2.104,2.104,2.104,2.104,2.104,2.104,2.104,2.104,2.104,2.104,2.107,2.107,2.107,2.107,2.107,2.107,2.105,2.104,2.104,2.104,2.104,2.104,2.102,2.1,2.1,2.096,2.096,2.094,2.094,2.094,2.092,2.092,2.092,2.09,2.09,2.09,2.088,2.088,2.086,2.086,2.086,2.086,2.086,2.086,2.086,2.088,2.088,2.088,2.088,2.088,2.086,2.086,2.082,2.08,2.078,2.072,2.07,2.072,2.07,2.064,2.05,2.03,1.987,1.955,1.934,1.925,1.921,1.921,1.92,1.915,1.915,1.914,1.909,1.902,1.899,1.897,1.896,1.894,1.893,1.893,1.89,1.884,1.882,1.884,1.887,1.885,1.883,1.881,1.875,1.87,1.865,1.863,1.859,1.855,1.851,1.849,1.846,1.842,1.838,1.836,1.832,1.832,1.829,1.826,1.825,1.824,1.821,1.82,1.82,1.82,1.819,1.816,1.816,1.816,1.814,1.8125,1.8125,1.8125,1.8125,1.812,1.81,1.81,1.809,1.809,1.809,1.809,1.809,1.81,1.812,1.81,1.809,1.809,1.806,1.804,1.802,1.801,1.8,1.798,1.795,1.793,1.792,1.79,1.79,1.788,1.787,1.787,1.787,1.782,1.779,1.783,1.784,1.785,1.787,1.788,1.792,1.794,1.796,1.796,1.797,1.798,1.796,1.796,1.796,1.796,1.795,1.794,1.796,1.796,1.796,1.796,1.795,1.794,1.789,1.788,1.787,1.784,1.782,1.779,1.773,1.771,1.77,1.768,1.765,1.763,1.759,1.756,1.75,1.748,1.748,1.746,1.745,1.745,1.744,1.742,1.741,1.741,1.738,1.737,1.735,1.734,1.732,1.732,1.7295,1.728,1.731,1.737,1.75,1.766,1.788,1.836,1.876,1.915,1.95,1.967,1.977,1.98,1.983,1.982,1.98,1.982,1.98,1.973,1.967,1.967,1.963,1.954,1.947,1.938,1.918,1.806,1.54,1.241,1.191,1.173,1.163,1.151,1.142,1.144,1.14,1.147
0.9346,0.9272,0.928,0.9277,0.93,0.9336,0.941,0.956,0.97,0.982,0.9956,1.008,1.015,1.022,1.03,1.037,1.043,1.052,1.059,1.06,1.068,1.078,1.088,1.089,1.111,1.135,1.136,1.122,1.148,1.221,1.353,1.544,1.637,1.678,1.686,1.692,1.701,1.707,1.7,1.704,1.707,1.71,1.716,1.719,1.724,1.729,1.732,1.733,1.738,1.74,1.742,1.747,1.753,1.756,1.76,1.766,1.77,1.773,1.778,1.785,1.791,1.796,1.806,1.816,1.824,1.829,1.834,1.838,1.845,1.849,1.854,1.856,1.861,1.866,1.867,1.873,1.876,1.884,1.889,1.893,1.899,1.905,1.911,1.917,1.926,1.933,1.941,1.947,1.953,1.958,1.967,1.973,1.979,1.986,1.993,1.999,2.004,2.016,2.023,2.031,2.041,2.049,2.053,2.06,2.064,2.07,2.074,2.08,2.088,2.09,2.096,2.098,2.104,2.105,2.11,2.113,2.115,2.117,2.12,2.12,2.12,2.125,2.125,2.125,2.125,2.127,2.129,2.129,2.13,2.13,2.13,2.13,2.13,2.13,2.133,2.133,2.135,2.135,2.133,2.133,2.133,2.133,2.133,2.133,2.13,2.13,2.13,2.129,2.129,2.129,2.127,2.127,2.125,2.125,2.125,2.125,2.123,2.125,2.12,2.12,2.12,2.12,2.117,2.117,2.117,2.117,2.117,2.117,2.117,2.115,2.113,2.113,2.111,2.11,2.11,2.107,2.107,2.105,2.104,2.104,2.104,2.104,2.104,2.104,2.104,2.1,2.1,2.1,2.1,2.098,2.098,2.096,2.096,2.092,2.092,2.092,2.094,2.094,2.094,2.094,2.092,2.092,2.092,2.092,2.092,2.092,2.092,2.092,2.094,2.094,2.094,2.094,2.094,2.094,2.094,2.094,2.094,2.092,2.09,2.088,2.088,2.09,2.086,2.086,2.086,2.084,2.082,2.082,2.082,2.082,2.082,2.08,2.08,2.08,2.076,2.076,2.076,2.074,2.074,2.074,2.074,2.074,2.074,2.074,2.076,2.076,2.076,2.076,2.074,2.074,2.074,2.074,2.072,2.07,2.068,2.064,2.062,2.06,2.062,2.055,2.043,2.02,1.978,1.948,1.926,1.918,1.912,1.913,1.911,1.907,1.908,1.906,1.901,1.892,1.891,1.888,1.887,1.884,1.884,1.885,1.883,1.876,1.875,1.875,1.878,1.878,1.875,1.875,1.87,1.865,1.86,1.857,1.855,1.851,1.849,1.846,1.843,1.838,1.835,1.833,1.829,1.827,1.824,1.822,1.819,1.818,1.817,1.815,1.814,1.815,1.811,1.812,1.81,1.811,1.807,1.807,1.806,1.803,1.804,1.804,1.802,1.802,1.802,1.802,1.802,1.802,1.801,1.801,1.804,1.804,1.801,1.802,1.8,1.798,1.797,1.796,1.795,1.793,1.791,1.789,1.786,1.785,1.785,1.784,1.782,1.782,1.782,1.777,1.774,1.776,1.777,1.777,1.78,1.782,1.783,1.785,1.786,1.787,1.788,1.788,1.788,1.785,1.786,1.786,1.785,1.785,1.785,1.786,1.786,1.785,1.784,1.782,1.777,1.777,1.776,1.774,1.771,1.77,1.765,1.762,1.761,1.757,1.756,1.756,1.752,1.747,1.744,1.743,1.744,1.743,1.741,1.74,1.74,1.739,1.738,1.738,1.735,1.733,1.731,1.73,1.729,1.728,1.725,1.725,1.729,1.7295,1.734,1.743,1.755,1.771,1.798,1.837,1.871,1.905,1.93,1.943,1.953,1.956,1.959,1.963,1.961,1.956,1.951,1.953,1.947,1.942,1.934,1.927,1.908,1.799,1.538,1.241,1.19,1.173,1.161,1.149,1.14,1.143,1.14,1.147
0.934,0.9272,0.9277,0.9272,0.9316,0.9355,0.9424,0.957,0.97,0.983,0.995,1.006,1.014,1.021,1.03,1.037,1.042,1.052,1.059,1.061,1.069,1.08,1.089,1.091,1.114,1.137,1.141,1.127,1.149,1.216,1.335,1.533,1.632,1.675,1.683,1.688,1.697,1.702,1.701,1.7,1.706,1.71,1.717,1.72,1.725,1.73,1.735,1.739,1.744,1.745,1.748,1.753,1.759,1.762,1.766,1.7705,1.773,1.778,1.782,1.79,1.793,1.801,1.81,1.821,1.829,1.833,1.838,1.843,1.849,1.854,1.856,1.861,1.866,1.868,1.872,1.876,1.88,1.886,1.893,1.897,1.902,1.909,1.914,1.921,1.93,1.9375,1.946,1.952,1.958,1.964,1.97,1.979,1.984,1.994,2.002,2.008,2.016,2.023,2.031,2.04,2.049,2.055,2.059,2.064,2.068,2.07,2.078,2.086,2.09,2.094,2.098,2.102,2.104,2.105,2.107,2.11,2.111,2.113,2.113,2.113,2.115,2.117,2.117,2.117,2.115,2.12,2.121,2.123,2.123,2.123,2.125,2.125,2.125,2.125,2.127,2.127,2.127,2.127,2.125,2.125,2.125,2.125,2.125,2.125,2.125,2.123,2.121,2.121,2.121,2.12,2.117,2.117,2.117,2.115,2.115,2.113,2.113,2.113,2.113,2.111,2.111,2.111,2.111,2.11,2.11,2.11,2.107,2.107,2.107,2.107,2.105,2.104,2.104,2.102,2.1,2.102,2.096,2.096,2.096,2.094,2.092,2.094,2.094,2.092,2.092,2.092,2.092,2.09,2.09,2.09,2.088,2.088,2.086,2.086,2.084,2.084,2.086,2.086,2.086,2.086,2.086,2.086,2.084,2.084,2.084,2.084,2.084,2.084,2.084,2.084,2.084,2.084,2.086,2.086,2.086,2.086,2.084,2.084,2.08,2.08,2.08,2.078,2.078,2.078,2.074,2.074,2.074,2.072,2.072,2.072,2.072,2.068,2.068,2.07,2.068,2.068,2.068,2.068,2.068,2.066,2.066,2.066,2.066,2.066,2.066,2.068,2.068,2.068,2.066,2.064,2.064,2.062,2.062,2.06,2.059,2.057,2.053,2.05,2.055,2.049,2.037,2.018,1.9795,1.95,1.927,1.915,1.909,1.906,1.904,1.9,1.899,1.897,1.893,1.886,1.883,1.882,1.88,1.879,1.879,1.878,1.876,1.871,1.867,1.87,1.874,1.873,1.87,1.87,1.865,1.86,1.857,1.8545,1.851,1.848,1.846,1.843,1.84,1.835,1.832,1.829,1.827,1.824,1.821,1.817,1.816,1.814,1.8125,1.811,1.81,1.81,1.808,1.806,1.804,1.803,1.802,1.799,1.8,1.798,1.797,1.797,1.797,1.796,1.794,1.794,1.794,1.794,1.796,1.797,1.796,1.796,1.797,1.795,1.794,1.792,1.792,1.791,1.79,1.788,1.786,1.783,1.783,1.78,1.78,1.779,1.779,1.778,1.777,1.772,1.769,1.771,1.772,1.772,1.773,1.774,1.776,1.778,1.779,1.779,1.779,1.779,1.779,1.778,1.776,1.775,1.775,1.775,1.775,1.775,1.775,1.774,1.773,1.772,1.769,1.769,1.769,1.766,1.763,1.76,1.756,1.752,1.752,1.749,1.746,1.746,1.743,1.74,1.736,1.736,1.737,1.735,1.733,1.734,1.732,1.732,1.731,1.7295,1.729,1.727,1.724,1.722,1.721,1.72,1.716,1.716,1.718,1.72,1.718,1.722,1.727,1.733,1.741,1.761,1.794,1.822,1.856,1.888,1.909,1.923,1.933,1.94,1.942,1.939,1.934,1.935,1.931,1.926,1.92,1.913,1.895,1.794,1.541,1.244,1.191,1.173,1.161,1.148,1.139,1.142,1.14,1.148
0.9326,0.927,0.927,0.928,0.9326,0.9385,0.947,0.959,0.9727,0.9844,0.994,1.006,1.012,1.0205,1.029,1.037,1.043,1.053,1.059,1.061,1.07,1.081,1.09,1.092,1.113,1.138,1.143,1.129,1.147,1.205,1.318,1.518,1.617,1.665,1.673,1.68,1.6875,1.692,1.69,1.689,1.695,1.701,1.708,1.715,1.722,1.729,1.735,1.741,1.744,1.748,1.752,1.756,1.759,1.763,1.766,1.771,1.775,1.778,1.783,1.789,1.794,1.801,1.811,1.822,1.829,1.834,1.84,1.843,1.851,1.854,1.858,1.861,1.867,1.868,1.873,1.876,1.882,1.887,1.893,1.898,1.904,1.91,1.917,1.922,1.932,1.938,1.948,1.955,1.959,1.966,1.976,1.983,1.99,2.0,2.01,2.016,2.021,2.03,2.035,2.045,2.049,2.055,2.059,2.064,2.068,2.07,2.076,2.082,2.088,2.09,2.094,2.094,2.096,2.096,2.098,2.102,2.104,2.105,2.105,2.107,2.107,2.11,2.11,2.11,2.11,2.11,2.111,2.113,2.113,2.113,2.113,2.113,2.113,2.115,2.117,2.117,2.117,2.115,2.113,2.113,2.113,2.113,2.113,2.111,2.113,2.11,2.111,2.111,2.11,2.11,2.11,2.107,2.107,2.107,2.105,2.104,2.104,2.105,2.104,2.1,2.1,2.1,2.1,2.1,2.1,2.098,2.098,2.098,2.098,2.098,2.094,2.092,2.092,2.092,2.092,2.09,2.088,2.088,2.086,2.086,2.086,2.086,2.084,2.084,2.084,2.082,2.082,2.082,2.082,2.082,2.082,2.076,2.076,2.074,2.074,2.074,2.076,2.074,2.076,2.076,2.076,2.074,2.074,2.074,2.074,2.074,2.074,2.074,2.074,2.074,2.074,2.074,2.074,2.074,2.076,2.074,2.074,2.076,2.072,2.072,2.07,2.07,2.068,2.068,2.066,2.066,2.066,2.064,2.064,2.064,2.064,2.064,2.064,2.062,2.062,2.06,2.06,2.06,2.06,2.06,2.06,2.06,2.059,2.06,2.06,2.06,2.06,2.06,2.059,2.057,2.057,2.055,2.055,2.055,2.05,2.047,2.045,2.043,2.045,2.041,2.037,2.023,1.99,1.959,1.934,1.921,1.911,1.905,1.901,1.897,1.896,1.894,1.887,1.883,1.88,1.879,1.878,1.875,1.875,1.873,1.871,1.866,1.863,1.863,1.868,1.866,1.864,1.863,1.858,1.855,1.852,1.85,1.848,1.844,1.841,1.838,1.834,1.83,1.828,1.825,1.823,1.82,1.818,1.815,1.813,1.811,1.81,1.807,1.806,1.807,1.805,1.802,1.801,1.8,1.798,1.795,1.796,1.793,1.793,1.793,1.791,1.791,1.791,1.791,1.791,1.79,1.79,1.79,1.793,1.793,1.79,1.791,1.789,1.788,1.786,1.786,1.783,1.782,1.782,1.777,1.775,1.775,1.775,1.773,1.774,1.774,1.773,1.767,1.765,1.766,1.767,1.769,1.77,1.7705,1.772,1.773,1.774,1.774,1.774,1.776,1.774,1.773,1.773,1.773,1.771,1.7705,1.7705,1.7705,1.771,1.77,1.767,1.767,1.763,1.764,1.761,1.759,1.758,1.754,1.75,1.746,1.745,1.742,1.739,1.739,1.736,1.731,1.728,1.728,1.729,1.728,1.725,1.724,1.723,1.722,1.722,1.721,1.719,1.718,1.715,1.714,1.712,1.711,1.708,1.708,1.711,1.709,1.708,1.708,1.709,1.712,1.715,1.726,1.736,1.759,1.797,1.829,1.855,1.886,1.909,1.922,1.927,1.923,1.919,1.919,1.916,1.912,1.907,1.902,1.885,1.792,1.545,1.247,1.192,1.173,1.162,1.147,1.138,1.141,1.14,1.148
0.9307,0.9243,0.9224,0.928,0.933,0.9395,0.948,0.9604,0.9727,0.983,0.9927,1.004,1.011,1.019,1.028,1.036,1.042,1.053,1.059,1.06,1.07,1.081,1.091,1.092,1.111,1.136,1.142,1.129,1.143,1.194,1.301,1.485,1.595,1.642,1.659,1.665,1.674,1.676,1.672,1.676,1.681,1.6875,1.698,1.704,1.714,1.725,1.735,1.743,1.749,1.752,1.756,1.759,1.763,1.764,1.767,1.772,1.775,1.777,1.783,1.79,1.795,1.801,1.8125,1.823,1.832,1.834,1.84,1.844,1.852,1.856,1.858,1.863,1.868,1.872,1.875,1.879,1.884,1.891,1.897,1.9,1.906,1.913,1.918,1.925,1.932,1.941,1.948,1.955,1.962,1.969,1.9795,1.988,1.996,2.004,2.014,2.02,2.025,2.031,2.037,2.045,2.049,2.055,2.059,2.064,2.064,2.07,2.072,2.078,2.084,2.086,2.088,2.088,2.088,2.09,2.09,2.094,2.096,2.096,2.098,2.098,2.1,2.102,2.102,2.102,2.102,2.104,2.104,2.104,2.105,2.105,2.105,2.107,2.107,2.107,2.107,2.11,2.107,2.107,2.107,2.104,2.104,2.104,2.104,2.102,2.102,2.1,2.098,2.098,2.096,2.096,2.094,2.096,2.092,2.094,2.094,2.092,2.092,2.092,2.092,2.09,2.09,2.09,2.09,2.088,2.086,2.086,2.086,2.086,2.086,2.086,2.084,2.082,2.082,2.08,2.08,2.08,2.08,2.078,2.08,2.08,2.078,2.078,2.078,2.074,2.074,2.074,2.074,2.074,2.074,2.074,2.072,2.072,2.072,2.07,2.068,2.068,2.07,2.07,2.068,2.068,2.07,2.068,2.068,2.068,2.068,2.068,2.068,2.068,2.066,2.066,2.066,2.068,2.068,2.068,2.068,2.068,2.068,2.064,2.064,2.064,2.064,2.06,2.06,2.06,2.059,2.059,2.059,2.059,2.057,2.057,2.057,2.057,2.057,2.057,2.055,2.055,2.055,2.055,2.055,2.055,2.055,2.053,2.053,2.053,2.053,2.053,2.05,2.053,2.053,2.05,2.05,2.049,2.047,2.045,2.041,2.041,2.037,2.037,2.037,2.037,2.033,2.025,2.002,1.968,1.939,1.923,1.913,1.905,1.899,1.897,1.894,1.891,1.884,1.877,1.876,1.873,1.871,1.87,1.867,1.865,1.864,1.859,1.856,1.857,1.859,1.859,1.857,1.857,1.854,1.85,1.846,1.844,1.842,1.838,1.836,1.833,1.83,1.826,1.823,1.82,1.818,1.816,1.813,1.812,1.81,1.807,1.805,1.803,1.802,1.802,1.799,1.798,1.797,1.795,1.792,1.791,1.789,1.789,1.789,1.788,1.786,1.786,1.785,1.784,1.784,1.786,1.786,1.786,1.788,1.788,1.786,1.785,1.784,1.782,1.782,1.781,1.78,1.777,1.775,1.773,1.772,1.7705,1.77,1.769,1.767,1.767,1.766,1.762,1.761,1.763,1.765,1.765,1.767,1.769,1.77,1.771,1.772,1.772,1.773,1.774,1.772,1.772,1.7705,1.7705,1.77,1.768,1.768,1.768,1.765,1.765,1.764,1.761,1.758,1.757,1.756,1.754,1.752,1.748,1.745,1.74,1.739,1.738,1.734,1.734,1.731,1.727,1.723,1.722,1.722,1.722,1.718,1.717,1.716,1.714,1.714,1.713,1.712,1.711,1.709,1.708,1.706,1.704,1.7,1.699,1.7,1.698,1.696,1.696,1.698,1.698,1.7,1.703,1.711,1.716,1.73,1.763,1.804,1.831,1.866,1.891,1.903,1.903,1.9,1.901,1.899,1.8955,1.893,1.888,1.873,1.787,1.549,1.249,1.192,1.175,1.162,1.147,1.138,1.141,1.14,1.148
0.9297,0.9224,0.9233,0.9297,0.936,0.9424,0.95,0.9614,0.973,0.9824,0.991,1.003,1.009,1.017,1.027,1.036,1.041,1.052,1.058,1.059,1.069,1.08,1.09,1.092,1.112,1.135,1.144,1.132,1.143,1.189,1.286,1.452,1.584,1.62,1.636,1.644,1.65,1.655,1.657,1.657,1.662,1.667,1.673,1.683,1.701,1.716,1.731,1.742,1.751,1.754,1.758,1.761,1.764,1.766,1.77,1.773,1.775,1.779,1.783,1.79,1.795,1.803,1.8125,1.824,1.831,1.834,1.84,1.845,1.851,1.856,1.858,1.864,1.868,1.872,1.874,1.881,1.885,1.892,1.897,1.904,1.908,1.916,1.92,1.928,1.936,1.944,1.953,1.96,1.967,1.974,1.985,1.993,2.004,2.01,2.018,2.021,2.025,2.033,2.037,2.045,2.05,2.055,2.059,2.062,2.066,2.066,2.07,2.074,2.078,2.08,2.082,2.082,2.082,2.084,2.084,2.086,2.088,2.088,2.088,2.09,2.09,2.09,2.092,2.092,2.092,2.094,2.094,2.094,2.094,2.094,2.096,2.096,2.098,2.098,2.098,2.098,2.098,2.098,2.098,2.094,2.096,2.092,2.092,2.094,2.094,2.09,2.088,2.09,2.088,2.088,2.088,2.088,2.084,2.086,2.084,2.084,2.084,2.084,2.084,2.082,2.078,2.078,2.078,2.078,2.076,2.076,2.076,2.076,2.076,2.076,2.074,2.072,2.07,2.07,2.07,2.072,2.07,2.068,2.068,2.068,2.068,2.068,2.068,2.068,2.066,2.066,2.064,2.068,2.068,2.064,2.066,2.062,2.064,2.062,2.062,2.062,2.062,2.06,2.06,2.06,2.06,2.06,2.06,2.06,2.06,2.06,2.06,2.06,2.059,2.059,2.057,2.06,2.06,2.059,2.057,2.059,2.059,2.057,2.057,2.057,2.055,2.053,2.053,2.053,2.05,2.049,2.049,2.049,2.049,2.049,2.049,2.049,2.049,2.049,2.049,2.049,2.043,2.045,2.045,2.045,2.045,2.045,2.045,2.045,2.043,2.043,2.043,2.04,2.041,2.04,2.041,2.041,2.04,2.035,2.035,2.033,2.033,2.033,2.031,2.033,2.033,2.03,2.018,1.996,1.957,1.937,1.919,1.912,1.902,1.896,1.893,1.889,1.882,1.874,1.873,1.87,1.868,1.863,1.863,1.86,1.86,1.855,1.8545,1.855,1.858,1.855,1.855,1.8545,1.852,1.848,1.844,1.841,1.84,1.836,1.831,1.83,1.826,1.822,1.819,1.817,1.815,1.8125,1.811,1.81,1.807,1.805,1.803,1.801,1.8,1.799,1.798,1.795,1.793,1.793,1.789,1.787,1.785,1.785,1.785,1.785,1.784,1.782,1.782,1.782,1.782,1.782,1.782,1.784,1.786,1.785,1.784,1.782,1.782,1.78,1.778,1.777,1.776,1.774,1.772,1.7705,1.768,1.767,1.767,1.763,1.764,1.764,1.763,1.759,1.758,1.758,1.761,1.76,1.762,1.764,1.765,1.767,1.767,1.767,1.768,1.768,1.767,1.767,1.767,1.764,1.764,1.762,1.762,1.761,1.76,1.759,1.757,1.755,1.752,1.751,1.751,1.748,1.746,1.743,1.738,1.735,1.735,1.731,1.73,1.7295,1.728,1.723,1.719,1.718,1.719,1.718,1.715,1.715,1.714,1.712,1.712,1.711,1.709,1.708,1.707,1.705,1.703,1.701,1.697,1.695,1.696,1.694,1.69,1.69,1.692,1.689,1.689,1.69,1.693,1.694,1.702,1.719,1.749,1.789,1.82,1.852,1.874,1.879,1.874,1.875,1.883,1.878,1.877,1.874,1.859,1.78,1.553,1.252,1.193,1.175,1.162,1.147,1.138,1.14,1.141,1.148
0.9272,0.9233,0.925,0.9307,0.9375,0.945,0.9526,0.9634,0.9736,0.982,0.991,1.003,1.01,1.018,1.027,1.035,1.042,1.052,1.059,1.061,1.071,1.083,1.092,1.094,1.113,1.135,1.148,1.138,1.1455,1.186,1.269,1.436,1.567,1.617,1.62,1.623,1.628,1.632,1.628,1.627,1.63,1.632,1.64,1.651,1.67,1.693,1.715,1.731,1.742,1.751,1.759,1.761,1.763,1.766,1.77,1.773,1.775,1.779,1.783,1.79,1.795,1.802,1.8125,1.821,1.831,1.834,1.84,1.843,1.851,1.855,1.858,1.861,1.867,1.87,1.874,1.88,1.885,1.892,1.899,1.903,1.909,1.916,1.922,1.928,1.937,1.946,1.957,1.965,1.972,1.979,1.992,2.0,2.006,2.014,2.02,2.023,2.027,2.031,2.037,2.045,2.05,2.055,2.057,2.059,2.062,2.062,2.066,2.068,2.068,2.07,2.07,2.07,2.07,2.072,2.072,2.074,2.074,2.074,2.076,2.076,2.076,2.078,2.078,2.078,2.078,2.078,2.078,2.08,2.08,2.082,2.082,2.082,2.082,2.084,2.084,2.086,2.086,2.084,2.084,2.082,2.082,2.082,2.082,2.08,2.08,2.078,2.078,2.076,2.076,2.074,2.072,2.072,2.072,2.072,2.072,2.072,2.072,2.07,2.07,2.07,2.068,2.068,2.068,2.068,2.068,2.068,2.068,2.066,2.066,2.066,2.064,2.064,2.064,2.064,2.064,2.062,2.062,2.06,2.06,2.059,2.059,2.059,2.059,2.059,2.057,2.057,2.059,2.059,2.059,2.057,2.055,2.055,2.053,2.05,2.053,2.049,2.049,2.049,2.047,2.047,2.047,2.047,2.047,2.047,2.047,2.049,2.049,2.049,2.049,2.049,2.049,2.049,2.05,2.05,2.05,2.047,2.049,2.047,2.047,2.045,2.043,2.041,2.04,2.04,2.04,2.037,2.037,2.035,2.035,2.035,2.035,2.035,2.035,2.035,2.037,2.033,2.035,2.033,2.033,2.033,2.033,2.033,2.033,2.033,2.033,2.033,2.031,2.033,2.033,2.033,2.031,2.031,2.031,2.031,2.03,2.027,2.025,2.025,2.025,2.027,2.027,2.027,2.023,2.014,1.99,1.958,1.934,1.919,1.908,1.899,1.895,1.889,1.883,1.874,1.871,1.867,1.863,1.861,1.859,1.858,1.858,1.855,1.853,1.855,1.855,1.8545,1.851,1.851,1.848,1.844,1.841,1.838,1.834,1.831,1.829,1.824,1.821,1.816,1.813,1.8125,1.812,1.81,1.809,1.806,1.804,1.802,1.8,1.797,1.797,1.797,1.794,1.793,1.791,1.789,1.786,1.783,1.784,1.783,1.784,1.781,1.782,1.782,1.78,1.78,1.78,1.78,1.78,1.779,1.78,1.78,1.779,1.778,1.775,1.773,1.772,1.771,1.77,1.769,1.766,1.764,1.764,1.761,1.759,1.758,1.758,1.758,1.757,1.753,1.751,1.753,1.754,1.756,1.757,1.758,1.758,1.758,1.759,1.758,1.761,1.76,1.758,1.758,1.758,1.758,1.756,1.755,1.755,1.753,1.753,1.75,1.749,1.747,1.745,1.743,1.742,1.741,1.739,1.736,1.732,1.728,1.728,1.725,1.723,1.723,1.719,1.715,1.711,1.709,1.709,1.708,1.706,1.704,1.703,1.703,1.703,1.701,1.699,1.698,1.697,1.695,1.693,1.693,1.692,1.691,1.691,1.688,1.687,1.686,1.687,1.685,1.686,1.686,1.685,1.683,1.687,1.698,1.714,1.742,1.783,1.809,1.844,1.856,1.861,1.861,1.867,1.864,1.86,1.859,1.848,1.777,1.558,1.253,1.193,1.175,1.162,1.147,1.138,1.141,1.14,1.147
0.9263,0.9243,0.926,0.932,0.9385,0.9473,0.9536,0.965,0.975,0.983,0.992,1.003,1.01,1.018,1.027,1.037,1.042,1.054,1.06,1.061,1.072,1.085,1.094,1.096,1.113,1.133,1.15,1.14,1.1455,1.183,1.256,1.424,1.556,1.605,1.612,1.607,1.61,1.612,1.613,1.611,1.613,1.616,1.623,1.634,1.652,1.675,1.702,1.72,1.735,1.745,1.755,1.761,1.763,1.764,1.77,1.773,1.775,1.777,1.782,1.789,1.795,1.8,1.811,1.821,1.83,1.834,1.84,1.844,1.851,1.855,1.858,1.861,1.867,1.869,1.873,1.878,1.885,1.891,1.896,1.901,1.905,1.912,1.919,1.925,1.935,1.944,1.956,1.964,1.97,1.978,1.99,1.999,2.004,2.01,2.016,2.02,2.023,2.027,2.033,2.04,2.047,2.047,2.053,2.055,2.055,2.057,2.059,2.06,2.06,2.06,2.062,2.062,2.062,2.062,2.062,2.064,2.064,2.064,2.064,2.064,2.064,2.066,2.066,2.066,2.066,2.066,2.066,2.068,2.068,2.068,2.07,2.07,2.072,2.072,2.074,2.076,2.076,2.074,2.074,2.07,2.072,2.07,2.07,2.07,2.068,2.068,2.066,2.064,2.064,2.062,2.062,2.062,2.062,2.064,2.064,2.064,2.064,2.062,2.062,2.062,2.062,2.062,2.062,2.062,2.062,2.06,2.06,2.06,2.06,2.06,2.059,2.059,2.059,2.057,2.059,2.059,2.057,2.055,2.053,2.053,2.053,2.053,2.05,2.049,2.049,2.05,2.05,2.05,2.05,2.049,2.045,2.045,2.043,2.043,2.041,2.04,2.04,2.04,2.04,2.04,2.04,2.037,2.037,2.037,2.037,2.037,2.037,2.04,2.04,2.04,2.037,2.041,2.041,2.041,2.041,2.041,2.037,2.04,2.037,2.037,2.035,2.035,2.031,2.031,2.031,2.027,2.027,2.025,2.027,2.027,2.027,2.027,2.027,2.027,2.025,2.025,2.025,2.025,2.025,2.025,2.025,2.025,2.025,2.025,2.025,2.025,2.025,2.025,2.025,2.025,2.023,2.023,2.023,2.023,2.021,2.021,2.02,2.02,2.02,2.02,2.021,2.023,2.023,2.016,2.006,1.985,1.95,1.931,1.916,1.903,1.897,1.893,1.885,1.876,1.873,1.867,1.864,1.861,1.859,1.858,1.857,1.855,1.852,1.853,1.854,1.851,1.849,1.848,1.844,1.839,1.836,1.832,1.828,1.825,1.823,1.818,1.815,1.811,1.811,1.808,1.807,1.805,1.803,1.801,1.8,1.799,1.795,1.794,1.793,1.794,1.79,1.79,1.787,1.787,1.782,1.782,1.781,1.782,1.78,1.779,1.778,1.778,1.777,1.774,1.774,1.774,1.774,1.774,1.774,1.774,1.773,1.771,1.7705,1.767,1.765,1.764,1.764,1.761,1.759,1.757,1.755,1.753,1.751,1.751,1.751,1.751,1.75,1.747,1.747,1.747,1.75,1.751,1.751,1.753,1.753,1.753,1.753,1.752,1.755,1.755,1.753,1.751,1.751,1.751,1.75,1.75,1.748,1.748,1.746,1.745,1.743,1.741,1.737,1.736,1.736,1.732,1.73,1.728,1.724,1.718,1.716,1.715,1.712,1.711,1.709,1.704,1.698,1.697,1.697,1.696,1.694,1.692,1.691,1.69,1.692,1.69,1.688,1.6875,1.6875,1.687,1.687,1.687,1.687,1.687,1.6875,1.686,1.684,1.683,1.683,1.68,1.682,1.684,1.682,1.679,1.681,1.689,1.702,1.717,1.745,1.783,1.81,1.836,1.848,1.853,1.857,1.853,1.852,1.85,1.837,1.773,1.559,1.254,1.193,1.175,1.162,1.148,1.138,1.141,1.14,1.147
0.925,0.924,0.927,0.933,0.941,0.9473,0.953,0.9634,0.9727,0.98,0.99,1.001,1.008,1.016,1.024,1.033,1.04,1.052,1.059,1.06,1.07,1.083,1.094,1.096,1.111,1.131,1.149,1.143,1.145,1.177,1.242,1.408,1.551,1.602,1.605,1.603,1.605,1.608,1.611,1.607,1.608,1.613,1.619,1.629,1.646,1.67,1.697,1.718,1.735,1.747,1.758,1.763,1.764,1.767,1.7705,1.774,1.777,1.78,1.783,1.79,1.796,1.803,1.8125,1.821,1.831,1.834,1.84,1.843,1.851,1.855,1.858,1.861,1.868,1.872,1.875,1.883,1.887,1.895,1.901,1.904,1.91,1.918,1.923,1.931,1.94,1.951,1.962,1.968,1.975,1.98,1.991,1.998,2.004,2.008,2.016,2.018,2.02,2.025,2.031,2.035,2.041,2.043,2.047,2.049,2.049,2.049,2.049,2.053,2.053,2.053,2.053,2.053,2.053,2.055,2.055,2.055,2.055,2.055,2.055,2.055,2.055,2.055,2.055,2.055,2.055,2.057,2.057,2.059,2.059,2.059,2.059,2.059,2.06,2.06,2.062,2.062,2.062,2.062,2.062,2.062,2.06,2.059,2.059,2.059,2.059,2.055,2.055,2.055,2.053,2.053,2.053,2.053,2.053,2.053,2.053,2.053,2.053,2.053,2.053,2.053,2.053,2.05,2.05,2.05,2.049,2.049,2.047,2.049,2.049,2.049,2.049,2.049,2.049,2.049,2.049,2.047,2.045,2.045,2.043,2.041,2.04,2.041,2.041,2.04,2.04,2.04,2.04,2.04,2.037,2.037,2.037,2.037,2.035,2.033,2.031,2.031,2.031,2.031,2.031,2.03,2.03,2.03,2.027,2.027,2.027,2.027,2.03,2.03,2.03,2.03,2.03,2.03,2.031,2.031,2.031,2.03,2.03,2.03,2.027,2.027,2.025,2.023,2.023,2.021,2.02,2.02,2.018,2.018,2.018,2.018,2.018,2.018,2.018,2.018,2.018,2.018,2.016,2.016,2.016,2.016,2.016,2.018,2.018,2.016,2.014,2.014,2.014,2.014,2.016,2.014,2.014,2.014,2.014,2.014,2.012,2.012,2.008,2.01,2.01,2.01,2.01,2.014,2.016,2.012,2.006,1.999,1.973,1.946,1.927,1.913,1.903,1.895,1.885,1.878,1.873,1.867,1.864,1.862,1.859,1.857,1.856,1.852,1.849,1.849,1.851,1.849,1.846,1.844,1.84,1.834,1.831,1.827,1.827,1.823,1.818,1.816,1.8125,1.809,1.808,1.805,1.803,1.802,1.8,1.799,1.798,1.795,1.794,1.793,1.791,1.79,1.789,1.787,1.785,1.784,1.782,1.78,1.779,1.776,1.777,1.776,1.774,1.773,1.773,1.772,1.772,1.772,1.772,1.772,1.772,1.771,1.769,1.767,1.766,1.763,1.76,1.759,1.758,1.756,1.754,1.751,1.749,1.747,1.746,1.746,1.745,1.746,1.745,1.742,1.742,1.742,1.745,1.746,1.746,1.747,1.747,1.747,1.747,1.746,1.748,1.748,1.746,1.746,1.745,1.744,1.742,1.742,1.741,1.741,1.739,1.736,1.735,1.733,1.73,1.73,1.728,1.728,1.724,1.72,1.716,1.712,1.711,1.708,1.706,1.706,1.702,1.697,1.693,1.691,1.691,1.691,1.689,1.6875,1.686,1.686,1.6875,1.686,1.685,1.685,1.685,1.681,1.681,1.682,1.682,1.684,1.684,1.68,1.677,1.676,1.675,1.672,1.673,1.674,1.676,1.67,1.67,1.676,1.687,1.697,1.713,1.745,1.775,1.793,1.813,1.831,1.84,1.838,1.839,1.839,1.827,1.765,1.557,1.253,1.192,1.175,1.162,1.147,1.137,1.14,1.14,1.146
0.9233,0.9243,0.926,0.932,0.941,0.9463,0.9517,0.9604,0.9707,0.978,0.987,0.9976,1.003,1.011,1.019,1.028,1.034,1.046,1.054,1.056,1.067,1.08,1.092,1.095,1.11,1.129,1.147,1.1455,1.1455,1.171,1.231,1.392,1.544,1.603,1.602,1.601,1.606,1.612,1.613,1.61,1.611,1.618,1.622,1.633,1.649,1.672,1.698,1.718,1.74,1.753,1.763,1.767,1.77,1.77,1.773,1.777,1.78,1.782,1.785,1.793,1.798,1.803,1.812,1.821,1.83,1.833,1.838,1.841,1.848,1.853,1.856,1.861,1.867,1.873,1.876,1.882,1.889,1.897,1.903,1.907,1.913,1.921,1.928,1.935,1.946,1.956,1.967,1.973,1.978,1.982,1.991,1.999,2.004,2.008,2.014,2.018,2.02,2.025,2.03,2.035,2.04,2.04,2.04,2.043,2.041,2.041,2.041,2.041,2.041,2.043,2.043,2.043,2.045,2.045,2.045,2.045,2.045,2.045,2.045,2.045,2.045,2.045,2.049,2.049,2.049,2.049,2.049,2.045,2.047,2.049,2.045,2.049,2.049,2.049,2.049,2.05,2.053,2.053,2.05,2.05,2.05,2.05,2.049,2.049,2.049,2.045,2.045,2.045,2.043,2.043,2.041,2.041,2.041,2.043,2.045,2.043,2.045,2.043,2.043,2.043,2.041,2.041,2.041,2.041,2.04,2.04,2.04,2.04,2.04,2.037,2.037,2.037,2.037,2.037,2.037,2.037,2.035,2.035,2.033,2.033,2.031,2.031,2.031,2.031,2.031,2.031,2.031,2.031,2.03,2.03,2.027,2.025,2.023,2.023,2.021,2.021,2.02,2.02,2.02,2.018,2.018,2.018,2.018,2.018,2.018,2.018,2.018,2.02,2.02,2.02,2.018,2.021,2.021,2.021,2.021,2.021,2.021,2.02,2.02,2.018,2.018,2.018,2.016,2.016,2.014,2.014,2.01,2.01,2.01,2.01,2.01,2.01,2.01,2.01,2.01,2.008,2.008,2.008,2.008,2.008,2.008,2.008,2.008,2.008,2.006,2.006,2.006,2.006,2.006,2.006,2.004,2.002,2.002,2.002,2.0,1.998,1.996,1.998,1.999,2.002,2.0,2.004,2.006,2.006,2.002,1.998,1.987,1.962,1.939,1.924,1.911,1.899,1.89,1.88,1.875,1.87,1.867,1.862,1.859,1.855,1.854,1.85,1.847,1.847,1.847,1.846,1.844,1.842,1.838,1.833,1.83,1.827,1.824,1.821,1.818,1.813,1.811,1.806,1.804,1.801,1.801,1.798,1.798,1.796,1.795,1.793,1.793,1.791,1.79,1.79,1.787,1.786,1.785,1.783,1.781,1.777,1.777,1.776,1.774,1.774,1.773,1.771,1.7705,1.7705,1.769,1.77,1.769,1.768,1.768,1.767,1.764,1.763,1.761,1.757,1.753,1.751,1.751,1.748,1.746,1.744,1.742,1.739,1.738,1.738,1.738,1.738,1.737,1.735,1.734,1.736,1.737,1.738,1.738,1.741,1.741,1.74,1.739,1.739,1.741,1.741,1.74,1.738,1.738,1.736,1.736,1.735,1.733,1.733,1.731,1.73,1.7295,1.728,1.723,1.722,1.722,1.72,1.718,1.714,1.711,1.707,1.706,1.704,1.702,1.701,1.697,1.694,1.69,1.687,1.688,1.6875,1.686,1.684,1.684,1.684,1.684,1.683,1.681,1.681,1.68,1.678,1.676,1.676,1.677,1.677,1.677,1.672,1.67,1.667,1.667,1.666,1.666,1.667,1.671,1.665,1.662,1.666,1.676,1.683,1.694,1.718,1.75,1.769,1.788,1.8125,1.829,1.826,1.828,1.829,1.819,1.76,1.556,1.252,1.19,1.172,1.159,1.1455,1.135,1.137,1.138,1.1455
0.9224,0.9243,0.9272,0.9346,0.941,0.9463,0.95,0.96,0.971,0.978,0.987,0.9956,1.001,1.009,1.016,1.024,1.032,1.043,1.052,1.054,1.065,1.078,1.091,1.094,1.107,1.124,1.144,1.147,1.1455,1.167,1.219,1.373,1.535,1.601,1.601,1.601,1.605,1.614,1.614,1.609,1.614,1.621,1.627,1.637,1.654,1.674,1.697,1.719,1.741,1.755,1.766,1.77,1.773,1.773,1.776,1.78,1.781,1.782,1.786,1.793,1.799,1.803,1.8125,1.821,1.83,1.835,1.838,1.843,1.848,1.8545,1.859,1.863,1.868,1.874,1.879,1.886,1.892,1.9,1.907,1.911,1.917,1.926,1.933,1.939,1.948,1.959,1.968,1.973,1.977,1.981,1.99,1.996,2.002,2.006,2.012,2.014,2.018,2.02,2.025,2.03,2.031,2.031,2.033,2.033,2.031,2.031,2.031,2.033,2.033,2.033,2.033,2.033,2.033,2.033,2.033,2.035,2.035,2.035,2.035,2.035,2.035,2.037,2.037,2.037,2.037,2.037,2.035,2.035,2.035,2.035,2.037,2.037,2.037,2.037,2.04,2.04,2.041,2.041,2.041,2.04,2.04,2.04,2.037,2.037,2.037,2.035,2.033,2.033,2.033,2.033,2.033,2.033,2.033,2.033,2.033,2.033,2.033,2.033,2.033,2.033,2.033,2.031,2.031,2.031,2.03,2.03,2.03,2.03,2.03,2.03,2.027,2.027,2.027,2.027,2.027,2.027,2.025,2.023,2.023,2.023,2.021,2.023,2.023,2.023,2.023,2.023,2.023,2.023,2.023,2.021,2.02,2.018,2.016,2.014,2.014,2.012,2.012,2.01,2.01,2.008,2.008,2.008,2.008,2.008,2.008,2.008,2.008,2.01,2.01,2.01,2.012,2.012,2.012,2.012,2.012,2.012,2.012,2.012,2.012,2.012,2.01,2.01,2.008,2.008,2.008,2.006,2.004,2.004,2.004,2.004,2.004,2.004,2.004,2.002,2.002,2.002,2.0,2.0,2.0,2.0,2.0,2.0,2.0,1.999,1.998,1.998,1.996,1.996,1.996,1.997,1.995,1.994,1.992,1.992,1.991,1.988,1.988,1.988,1.988,1.99,1.993,1.996,1.998,1.998,1.999,1.997,1.994,1.985,1.965,1.943,1.925,1.909,1.898,1.889,1.882,1.876,1.871,1.866,1.861,1.857,1.855,1.851,1.848,1.847,1.849,1.846,1.843,1.842,1.838,1.834,1.83,1.826,1.822,1.817,1.814,1.811,1.808,1.804,1.801,1.799,1.798,1.796,1.795,1.793,1.793,1.792,1.788,1.787,1.786,1.785,1.784,1.782,1.782,1.78,1.776,1.774,1.774,1.772,1.772,1.772,1.77,1.77,1.767,1.766,1.766,1.765,1.765,1.763,1.764,1.762,1.758,1.756,1.753,1.75,1.746,1.744,1.743,1.741,1.738,1.736,1.734,1.733,1.731,1.73,1.731,1.731,1.731,1.729,1.728,1.7295,1.731,1.73,1.731,1.732,1.732,1.732,1.732,1.73,1.732,1.733,1.731,1.73,1.7295,1.728,1.728,1.728,1.727,1.727,1.725,1.722,1.721,1.72,1.716,1.716,1.713,1.713,1.71,1.708,1.703,1.7,1.699,1.696,1.695,1.694,1.693,1.687,1.684,1.683,1.683,1.682,1.68,1.678,1.678,1.678,1.678,1.677,1.675,1.675,1.674,1.671,1.67,1.671,1.671,1.671,1.671,1.667,1.666,1.663,1.664,1.661,1.662,1.663,1.664,1.658,1.656,1.66,1.668,1.674,1.686,1.698,1.729,1.75,1.775,1.8,1.814,1.814,1.815,1.821,1.812,1.753,1.551,1.252,1.188,1.169,1.157,1.145,1.134,1.135,1.138,1.144
0.9214,0.926,0.9287,0.935,0.942,0.946,0.949,0.9604,0.9717,0.979,0.987,0.996,1.001,1.009,1.016,1.024,1.032,1.044,1.051,1.054,1.064,1.078,1.091,1.093,1.105,1.12,1.142,1.148,1.144,1.163,1.209,1.3545,1.525,1.598,1.601,1.602,1.6045,1.611,1.612,1.607,1.611,1.619,1.628,1.639,1.656,1.674,1.697,1.718,1.741,1.758,1.768,1.773,1.775,1.776,1.779,1.782,1.783,1.785,1.788,1.795,1.799,1.806,1.8125,1.823,1.832,1.838,1.841,1.845,1.853,1.856,1.86,1.866,1.871,1.876,1.882,1.889,1.8955,1.904,1.912,1.915,1.921,1.93,1.936,1.941,1.95,1.96,1.967,1.97,1.975,1.979,1.986,1.994,2.0,2.004,2.01,2.012,2.014,2.016,2.02,2.023,2.025,2.023,2.025,2.025,2.023,2.023,2.023,2.025,2.025,2.025,2.025,2.025,2.025,2.025,2.025,2.03,2.027,2.027,2.027,2.027,2.027,2.03,2.03,2.03,2.03,2.03,2.027,2.027,2.027,2.03,2.027,2.03,2.031,2.031,2.031,2.033,2.033,2.033,2.031,2.031,2.031,2.031,2.03,2.03,2.027,2.027,2.025,2.025,2.025,2.025,2.025,2.025,2.025,2.027,2.027,2.027,2.027,2.025,2.025,2.025,2.025,2.023,2.023,2.021,2.021,2.021,2.021,2.021,2.021,2.02,2.02,2.02,2.02,2.02,2.02,2.018,2.018,2.018,2.016,2.016,2.016,2.016,2.018,2.018,2.018,2.018,2.018,2.018,2.016,2.016,2.014,2.012,2.01,2.008,2.006,2.006,2.004,2.004,2.002,2.002,2.002,2.002,2.002,2.002,2.002,2.002,2.002,2.002,2.004,2.004,2.004,2.004,2.006,2.006,2.006,2.006,2.004,2.004,2.006,2.004,2.004,2.002,2.002,2.002,1.999,2.0,1.998,1.997,1.997,1.997,1.997,1.997,1.997,1.997,1.996,1.995,1.995,1.995,1.995,1.995,1.995,1.995,1.995,1.995,1.994,1.993,1.991,1.991,1.991,1.991,1.989,1.987,1.987,1.985,1.985,1.985,1.982,1.981,1.981,1.981,1.985,1.991,1.991,1.991,1.992,1.993,1.992,1.989,1.983,1.974,1.953,1.931,1.916,1.901,1.894,1.886,1.88,1.875,1.87,1.865,1.863,1.857,1.8545,1.8545,1.85,1.849,1.846,1.843,1.839,1.833,1.83,1.825,1.822,1.817,1.813,1.81,1.807,1.803,1.802,1.798,1.796,1.795,1.793,1.792,1.79,1.79,1.787,1.785,1.782,1.782,1.779,1.778,1.778,1.776,1.774,1.771,1.771,1.767,1.768,1.768,1.767,1.764,1.764,1.764,1.762,1.762,1.761,1.76,1.76,1.759,1.755,1.751,1.75,1.745,1.741,1.741,1.739,1.737,1.734,1.732,1.73,1.7295,1.729,1.727,1.728,1.729,1.727,1.724,1.724,1.724,1.727,1.727,1.727,1.727,1.727,1.727,1.727,1.725,1.727,1.727,1.725,1.724,1.724,1.724,1.722,1.721,1.72,1.719,1.719,1.718,1.716,1.715,1.711,1.709,1.709,1.706,1.705,1.701,1.697,1.694,1.692,1.689,1.6875,1.6875,1.687,1.682,1.678,1.677,1.677,1.677,1.675,1.673,1.673,1.674,1.674,1.673,1.672,1.672,1.672,1.669,1.668,1.667,1.67,1.67,1.669,1.666,1.664,1.66,1.66,1.659,1.659,1.659,1.66,1.654,1.652,1.658,1.664,1.669,1.678,1.69,1.713,1.738,1.763,1.786,1.803,1.803,1.807,1.8125,1.805,1.746,1.547,1.251,1.187,1.168,1.156,1.145,1.134,1.135,1.138,1.143
0.921,0.9243,0.927,0.934,0.9414,0.944,0.947,0.9585,0.97,0.9775,0.9854,0.994,1.001,1.008,1.016,1.024,1.032,1.044,1.052,1.056,1.067,1.081,1.093,1.097,1.108,1.12,1.141,1.152,1.147,1.162,1.203,1.34,1.517,1.6,1.609,1.606,1.61,1.62,1.619,1.613,1.617,1.627,1.631,1.642,1.659,1.678,1.699,1.722,1.745,1.764,1.773,1.777,1.781,1.783,1.784,1.785,1.785,1.788,1.789,1.795,1.802,1.806,1.813,1.824,1.834,1.838,1.843,1.848,1.853,1.859,1.863,1.87,1.875,1.881,1.886,1.894,1.9,1.91,1.919,1.923,1.93,1.939,1.944,1.949,1.957,1.968,1.974,1.978,1.982,1.986,1.994,2.0,2.004,2.008,2.012,2.016,2.018,2.018,2.02,2.021,2.023,2.021,2.02,2.02,2.02,2.018,2.02,2.02,2.02,2.021,2.023,2.021,2.023,2.021,2.023,2.021,2.023,2.023,2.021,2.021,2.021,2.021,2.021,2.021,2.021,2.021,2.021,2.021,2.021,2.021,2.021,2.021,2.021,2.021,2.021,2.02,2.02,2.02,2.02,2.018,2.016,2.016,2.018,2.014,2.016,2.012,2.012,2.012,2.012,2.012,2.012,2.012,2.014,2.014,2.014,2.014,2.014,2.014,2.014,2.012,2.012,2.012,2.01,2.01,2.01,2.008,2.008,2.008,2.008,2.008,2.008,2.008,2.008,2.008,2.008,2.006,2.006,2.004,2.004,2.004,2.004,2.004,2.004,2.004,2.004,2.004,2.0,2.002,2.0,2.002,2.002,2.002,2.0,1.998,1.998,1.997,1.994,1.994,1.994,1.994,1.992,1.993,1.993,1.993,1.993,1.993,1.992,1.994,1.993,1.992,1.992,1.994,1.994,1.994,1.994,1.994,1.994,1.994,1.994,1.994,1.992,1.993,1.993,1.992,1.993,1.993,1.991,1.991,1.991,1.993,1.993,1.993,1.992,1.991,1.991,1.991,1.989,1.989,1.989,1.989,1.989,1.989,1.989,1.989,1.989,1.987,1.987,1.985,1.985,1.985,1.983,1.983,1.981,1.979,1.9795,1.977,1.976,1.976,1.976,1.975,1.977,1.981,1.987,1.985,1.987,1.988,1.989,1.988,1.986,1.98,1.974,1.962,1.94,1.92,1.908,1.897,1.89,1.882,1.877,1.873,1.869,1.864,1.86,1.859,1.856,1.851,1.848,1.845,1.839,1.837,1.83,1.826,1.822,1.816,1.813,1.811,1.807,1.803,1.802,1.798,1.797,1.794,1.793,1.79,1.789,1.787,1.784,1.782,1.78,1.777,1.775,1.773,1.773,1.773,1.77,1.768,1.767,1.765,1.764,1.763,1.762,1.762,1.759,1.759,1.758,1.757,1.757,1.756,1.757,1.755,1.751,1.749,1.746,1.743,1.739,1.737,1.736,1.735,1.732,1.731,1.7295,1.729,1.728,1.726,1.727,1.726,1.725,1.722,1.72,1.722,1.722,1.722,1.722,1.722,1.722,1.722,1.722,1.72,1.722,1.722,1.72,1.719,1.719,1.716,1.716,1.714,1.714,1.714,1.713,1.713,1.71,1.709,1.706,1.706,1.704,1.702,1.699,1.695,1.691,1.6875,1.686,1.684,1.682,1.683,1.68,1.674,1.671,1.671,1.671,1.671,1.668,1.667,1.668,1.669,1.671,1.67,1.669,1.668,1.668,1.666,1.664,1.664,1.665,1.664,1.664,1.66,1.657,1.653,1.652,1.651,1.65,1.651,1.653,1.648,1.646,1.652,1.659,1.664,1.672,1.681,1.702,1.724,1.75,1.774,1.79,1.794,1.798,1.805,1.797,1.739,1.543,1.248,1.185,1.165,1.154,1.144,1.133,1.134,1.138,1.142
0.9214,0.9243,0.927,0.934,0.9414,0.944,0.947,0.958,0.9697,0.9756,0.985,0.9927,0.9995,1.006,1.015,1.022,1.031,1.042,1.05,1.054,1.065,1.08,1.092,1.097,1.107,1.117,1.137,1.152,1.147,1.159,1.196,1.321,1.505,1.598,1.607,1.605,1.609,1.617,1.618,1.613,1.617,1.627,1.631,1.642,1.661,1.678,1.697,1.719,1.743,1.763,1.774,1.779,1.783,1.786,1.787,1.787,1.787,1.789,1.789,1.795,1.802,1.806,1.813,1.824,1.833,1.838,1.844,1.85,1.855,1.861,1.866,1.872,1.88,1.884,1.89,1.897,1.904,1.913,1.923,1.927,1.931,1.939,1.945,1.948,1.958,1.967,1.973,1.977,1.982,1.985,1.993,1.999,2.002,2.006,2.01,2.012,2.012,2.012,2.014,2.014,2.016,2.014,2.012,2.012,2.012,2.012,2.012,2.012,2.012,2.014,2.014,2.014,2.014,2.016,2.016,2.016,2.016,2.016,2.016,2.016,2.016,2.016,2.016,2.014,2.014,2.014,2.012,2.012,2.012,2.012,2.012,2.012,2.012,2.01,2.01,2.01,2.01,2.008,2.008,2.008,2.006,2.008,2.006,2.006,2.006,2.004,2.002,2.002,2.002,2.002,2.002,2.002,2.004,2.006,2.006,2.006,2.006,2.006,2.006,2.006,2.004,2.004,2.004,2.002,2.002,2.002,2.002,1.999,2.002,2.002,1.999,1.999,2.0,1.999,1.999,1.997,1.997,1.997,1.995,1.995,1.995,1.997,1.997,1.997,1.995,1.995,1.995,1.993,1.993,1.995,1.995,1.993,1.991,1.991,1.991,1.987,1.987,1.987,1.987,1.987,1.987,1.987,1.987,1.987,1.987,1.987,1.987,1.989,1.987,1.987,1.987,1.987,1.988,1.987,1.988,1.987,1.989,1.987,1.987,1.987,1.987,1.987,1.987,1.987,1.987,1.986,1.987,1.986,1.986,1.987,1.987,1.987,1.987,1.987,1.986,1.987,1.987,1.984,1.985,1.986,1.986,1.984,1.984,1.984,1.984,1.982,1.982,1.982,1.982,1.982,1.98,1.979,1.976,1.975,1.972,1.972,1.971,1.97,1.97,1.969,1.971,1.974,1.977,1.979,1.98,1.981,1.982,1.983,1.983,1.98,1.975,1.97,1.962,1.949,1.935,1.918,1.907,1.898,1.891,1.883,1.878,1.873,1.867,1.865,1.86,1.855,1.851,1.847,1.842,1.839,1.834,1.831,1.824,1.819,1.814,1.81,1.807,1.802,1.799,1.797,1.794,1.792,1.79,1.788,1.787,1.784,1.782,1.78,1.777,1.775,1.773,1.772,1.771,1.7705,1.767,1.766,1.764,1.76,1.761,1.758,1.759,1.757,1.756,1.755,1.754,1.753,1.752,1.751,1.751,1.749,1.746,1.743,1.741,1.735,1.732,1.731,1.73,1.729,1.727,1.726,1.725,1.722,1.721,1.719,1.719,1.72,1.718,1.715,1.713,1.713,1.715,1.714,1.714,1.715,1.713,1.714,1.714,1.713,1.713,1.713,1.713,1.709,1.71,1.709,1.706,1.706,1.706,1.706,1.705,1.703,1.701,1.701,1.698,1.697,1.697,1.694,1.692,1.688,1.684,1.683,1.681,1.679,1.676,1.677,1.674,1.669,1.665,1.665,1.665,1.666,1.664,1.662,1.662,1.663,1.666,1.665,1.663,1.663,1.663,1.661,1.659,1.659,1.66,1.66,1.659,1.657,1.653,1.649,1.647,1.645,1.644,1.645,1.646,1.644,1.642,1.647,1.653,1.658,1.663,1.673,1.693,1.716,1.743,1.769,1.785,1.789,1.792,1.799,1.789,1.732,1.543,1.247,1.181,1.162,1.151,1.141,1.132,1.134,1.138,1.141
0.924,0.9263,0.9287,0.9355,0.9424,0.9453,0.949,0.96,0.9707,0.977,0.9854,0.9927,0.9995,1.006,1.013,1.021,1.028,1.039,1.049,1.052,1.063,1.078,1.09,1.095,1.105,1.115,1.13,1.151,1.146,1.156,1.189,1.302,1.486,1.59,1.6045,1.601,1.6045,1.611,1.613,1.609,1.614,1.623,1.631,1.642,1.659,1.677,1.693,1.711,1.738,1.761,1.773,1.778,1.783,1.786,1.785,1.787,1.787,1.789,1.792,1.798,1.804,1.808,1.814,1.824,1.836,1.842,1.848,1.8545,1.859,1.863,1.869,1.878,1.884,1.889,1.895,1.904,1.91,1.919,1.929,1.93,1.934,1.94,1.945,1.948,1.956,1.967,1.973,1.977,1.981,1.985,1.993,1.997,2.0,2.002,2.006,2.006,2.006,2.006,2.006,2.008,2.008,2.006,2.006,2.006,2.004,2.004,2.006,2.006,2.006,2.006,2.008,2.006,2.006,2.006,2.006,2.008,2.008,2.008,2.008,2.008,2.008,2.006,2.006,2.008,2.006,2.004,2.004,2.004,2.004,2.004,2.004,2.006,2.002,2.002,2.002,2.002,2.002,2.004,2.004,2.004,2.002,2.002,2.0,2.002,1.999,1.999,1.997,1.997,1.995,1.995,1.995,1.995,1.995,1.997,1.997,1.999,1.999,1.999,1.999,1.999,1.997,1.997,1.997,1.995,1.995,1.995,1.995,1.996,1.995,1.995,1.993,1.993,1.993,1.993,1.993,1.993,1.993,1.994,1.991,1.991,1.991,1.991,1.991,1.99,1.989,1.989,1.989,1.989,1.987,1.989,1.989,1.989,1.988,1.986,1.986,1.986,1.984,1.984,1.986,1.986,1.986,1.986,1.986,1.986,1.986,1.986,1.986,1.988,1.986,1.986,1.986,1.986,1.986,1.987,1.986,1.986,1.986,1.986,1.986,1.986,1.986,1.986,1.986,1.986,1.986,1.986,1.984,1.984,1.986,1.986,1.986,1.986,1.986,1.986,1.985,1.984,1.985,1.984,1.985,1.984,1.986,1.985,1.984,1.984,1.984,1.982,1.982,1.982,1.982,1.98,1.98,1.977,1.975,1.972,1.969,1.969,1.967,1.968,1.967,1.965,1.966,1.968,1.97,1.973,1.974,1.973,1.976,1.977,1.976,1.975,1.974,1.97,1.967,1.959,1.956,1.947,1.938,1.922,1.91,1.899,1.891,1.884,1.878,1.874,1.869,1.865,1.858,1.8545,1.85,1.847,1.841,1.834,1.829,1.824,1.819,1.8125,1.808,1.803,1.8,1.795,1.793,1.79,1.788,1.787,1.785,1.784,1.782,1.782,1.777,1.775,1.773,1.772,1.7705,1.768,1.766,1.763,1.761,1.757,1.757,1.758,1.755,1.755,1.753,1.752,1.75,1.75,1.749,1.747,1.747,1.744,1.741,1.737,1.736,1.73,1.728,1.725,1.725,1.724,1.722,1.72,1.72,1.717,1.715,1.715,1.715,1.715,1.714,1.71,1.708,1.709,1.709,1.708,1.707,1.709,1.707,1.707,1.707,1.706,1.706,1.706,1.704,1.703,1.701,1.699,1.698,1.696,1.695,1.695,1.695,1.692,1.692,1.69,1.689,1.688,1.688,1.686,1.685,1.681,1.678,1.675,1.675,1.673,1.671,1.672,1.668,1.664,1.661,1.66,1.661,1.662,1.659,1.658,1.658,1.658,1.66,1.66,1.658,1.659,1.658,1.657,1.654,1.655,1.658,1.657,1.655,1.653,1.649,1.6455,1.643,1.64,1.639,1.639,1.643,1.638,1.637,1.643,1.649,1.652,1.659,1.669,1.688,1.711,1.737,1.762,1.779,1.782,1.785,1.792,1.783,1.728,1.542,1.247,1.18,1.16,1.15,1.142,1.13,1.134,1.138,1.141
0.927,0.9277,0.9307,0.937,0.945,0.9463,0.949,0.96,0.9697,0.9775,0.9854,0.993,1.0,1.005,1.013,1.021,1.028,1.039,1.048,1.051,1.062,1.076,1.089,1.095,1.105,1.113,1.126,1.148,1.145,1.153,1.184,1.285,1.468,1.583,1.6,1.598,1.601,1.607,1.609,1.605,1.609,1.616,1.628,1.639,1.655,1.67,1.688,1.704,1.73,1.755,1.7705,1.775,1.78,1.785,1.784,1.785,1.786,1.79,1.792,1.798,1.805,1.81,1.815,1.826,1.835,1.843,1.85,1.856,1.862,1.867,1.874,1.881,1.889,1.894,1.9,1.908,1.915,1.921,1.931,1.932,1.936,1.941,1.944,1.948,1.958,1.967,1.973,1.977,1.981,1.984,1.99,1.995,1.998,1.998,2.002,2.002,2.0,2.0,1.998,2.0,2.0,1.998,2.0,1.999,1.998,1.998,1.999,1.999,1.998,1.998,2.0,1.998,1.999,2.0,2.0,2.0,2.002,2.002,2.002,2.002,2.002,2.0,2.0,1.998,2.0,1.999,1.998,1.998,1.998,1.998,1.999,1.998,1.998,1.997,1.997,1.997,1.997,1.997,1.997,1.997,1.996,1.996,1.996,1.996,1.996,1.995,1.993,1.993,1.991,1.992,1.992,1.992,1.991,1.992,1.992,1.994,1.994,1.992,1.992,1.991,1.991,1.991,1.991,1.991,1.99,1.99,1.99,1.99,1.991,1.99,1.989,1.988,1.988,1.988,1.987,1.989,1.989,1.989,1.989,1.987,1.988,1.986,1.985,1.985,1.984,1.982,1.982,1.982,1.982,1.982,1.985,1.986,1.985,1.985,1.986,1.984,1.981,1.983,1.985,1.986,1.986,1.987,1.986,1.985,1.985,1.985,1.985,1.987,1.985,1.985,1.985,1.985,1.985,1.986,1.985,1.985,1.985,1.985,1.985,1.985,1.985,1.985,1.985,1.985,1.985,1.985,1.983,1.983,1.985,1.985,1.985,1.985,1.985,1.985,1.984,1.985,1.985,1.985,1.985,1.987,1.986,1.985,1.985,1.983,1.983,1.982,1.981,1.981,1.98,1.978,1.977,1.974,1.971,1.969,1.967,1.964,1.962,1.962,1.96,1.959,1.96,1.96,1.962,1.964,1.966,1.965,1.968,1.97,1.971,1.971,1.968,1.968,1.964,1.96,1.956,1.95,1.945,1.9375,1.927,1.913,1.904,1.896,1.889,1.884,1.88,1.874,1.868,1.862,1.8545,1.853,1.847,1.84,1.834,1.828,1.822,1.816,1.811,1.807,1.802,1.797,1.795,1.792,1.79,1.787,1.787,1.785,1.782,1.782,1.778,1.775,1.773,1.771,1.77,1.767,1.764,1.761,1.759,1.755,1.753,1.755,1.754,1.753,1.751,1.75,1.748,1.747,1.745,1.744,1.745,1.742,1.738,1.734,1.732,1.727,1.724,1.722,1.722,1.72,1.719,1.718,1.716,1.713,1.713,1.712,1.712,1.712,1.709,1.706,1.704,1.704,1.704,1.703,1.703,1.703,1.702,1.701,1.701,1.698,1.698,1.698,1.696,1.695,1.693,1.691,1.689,1.688,1.6875,1.6875,1.6875,1.685,1.685,1.684,1.682,1.682,1.681,1.68,1.678,1.675,1.673,1.67,1.67,1.667,1.667,1.666,1.664,1.66,1.657,1.657,1.658,1.659,1.657,1.655,1.656,1.656,1.658,1.658,1.658,1.656,1.657,1.654,1.654,1.653,1.656,1.655,1.654,1.651,1.647,1.643,1.64,1.637,1.633,1.634,1.637,1.633,1.631,1.639,1.6455,1.649,1.655,1.667,1.6875,1.709,1.736,1.759,1.773,1.777,1.781,1.786,1.777,1.722,1.541,1.247,1.179,1.159,1.149,1.141,1.13,1.134,1.138,1.142
0.929,0.9287,0.9316,0.939,0.9453,0.9487,0.9507,0.9595,0.97,0.976,0.985,0.9927,0.9995,1.005,1.014,1.0205,1.028,1.038,1.047,1.051,1.062,1.075,1.089,1.095,1.106,1.114,1.122,1.144,1.144,1.151,1.178,1.269,1.447,1.575,1.596,1.595,1.6,1.605,1.608,1.604,1.608,1.615,1.626,1.638,1.651,1.664,1.681,1.699,1.727,1.754,1.769,1.775,1.782,1.786,1.786,1.788,1.79,1.791,1.792,1.798,1.804,1.81,1.815,1.826,1.835,1.844,1.852,1.859,1.864,1.871,1.876,1.885,1.891,1.896,1.9,1.906,1.913,1.921,1.929,1.931,1.933,1.939,1.945,1.947,1.955,1.965,1.97,1.974,1.977,1.979,1.983,1.987,1.988,1.989,1.99,1.99,1.988,1.988,1.988,1.988,1.988,1.988,1.988,1.986,1.986,1.986,1.986,1.986,1.986,1.988,1.988,1.988,1.988,1.988,1.988,1.99,1.99,1.99,1.99,1.992,1.991,1.99,1.99,1.991,1.99,1.99,1.991,1.991,1.992,1.991,1.992,1.991,1.991,1.991,1.991,1.99,1.988,1.988,1.988,1.988,1.986,1.986,1.986,1.987,1.987,1.984,1.985,1.985,1.984,1.983,1.983,1.983,1.983,1.985,1.985,1.985,1.985,1.985,1.983,1.983,1.982,1.982,1.982,1.982,1.98,1.98,1.98,1.981,1.982,1.982,1.981,1.981,1.9795,1.9795,1.981,1.981,1.983,1.983,1.983,1.982,1.9795,1.979,1.977,1.976,1.975,1.976,1.974,1.973,1.973,1.974,1.975,1.975,1.975,1.975,1.976,1.976,1.976,1.977,1.9795,1.9795,1.981,1.981,1.98,1.981,1.981,1.981,1.981,1.981,1.9795,1.9795,1.9795,1.9795,1.9795,1.9795,1.9795,1.9795,1.9795,1.9795,1.9795,1.981,1.9795,1.98,1.981,1.981,1.9795,1.98,1.9795,1.98,1.981,1.981,1.981,1.981,1.981,1.981,1.981,1.981,1.981,1.981,1.981,1.981,1.981,1.9795,1.9795,1.9795,1.978,1.977,1.976,1.975,1.974,1.973,1.97,1.968,1.966,1.962,1.959,1.957,1.955,1.952,1.953,1.95,1.95,1.95,1.95,1.951,1.954,1.954,1.954,1.957,1.958,1.957,1.956,1.954,1.952,1.949,1.947,1.942,1.9375,1.929,1.923,1.918,1.911,1.904,1.898,1.8955,1.893,1.888,1.877,1.87,1.864,1.857,1.853,1.847,1.841,1.834,1.827,1.821,1.816,1.809,1.805,1.798,1.797,1.793,1.79,1.787,1.784,1.782,1.781,1.777,1.775,1.773,1.7705,1.767,1.767,1.764,1.759,1.758,1.755,1.751,1.749,1.749,1.749,1.748,1.746,1.745,1.743,1.742,1.741,1.739,1.739,1.737,1.733,1.7295,1.727,1.721,1.717,1.715,1.714,1.714,1.711,1.709,1.707,1.705,1.704,1.702,1.702,1.702,1.7,1.697,1.694,1.695,1.695,1.694,1.693,1.692,1.692,1.691,1.69,1.689,1.688,1.6875,1.685,1.685,1.684,1.681,1.679,1.678,1.677,1.677,1.677,1.675,1.674,1.674,1.671,1.671,1.671,1.67,1.669,1.665,1.663,1.66,1.661,1.658,1.656,1.658,1.653,1.651,1.65,1.648,1.65,1.65,1.649,1.648,1.649,1.65,1.652,1.652,1.65,1.65,1.651,1.648,1.648,1.648,1.65,1.65,1.648,1.647,1.644,1.639,1.636,1.63,1.628,1.628,1.633,1.629,1.629,1.634,1.641,1.6455,1.655,1.668,1.689,1.713,1.736,1.758,1.7705,1.775,1.778,1.782,1.774,1.718,1.538,1.247,1.177,1.157,1.148,1.138,1.128,1.133,1.137,1.142
0.9326,0.931,0.933,0.9404,0.947,0.95,0.953,0.961,0.9717,0.9785,0.9863,0.994,1.0,1.006,1.013,1.0205,1.027,1.037,1.046,1.049,1.061,1.074,1.088,1.094,1.106,1.115,1.119,1.142,1.143,1.149,1.174,1.26,1.429,1.57,1.593,1.594,1.598,1.605,1.609,1.607,1.611,1.618,1.629,1.64,1.652,1.667,1.686,1.703,1.731,1.758,1.774,1.781,1.787,1.793,1.792,1.792,1.793,1.794,1.795,1.8,1.807,1.81,1.816,1.826,1.836,1.846,1.854,1.861,1.868,1.872,1.88,1.888,1.893,1.8955,1.9,1.904,1.911,1.918,1.928,1.93,1.932,1.938,1.943,1.946,1.953,1.962,1.968,1.971,1.973,1.975,1.979,1.98,1.982,1.982,1.981,1.982,1.981,1.981,1.981,1.981,1.981,1.981,1.98,1.979,1.9795,1.978,1.978,1.978,1.979,1.9795,1.9795,1.9795,1.978,1.978,1.98,1.981,1.981,1.982,1.983,1.985,1.983,1.985,1.985,1.985,1.985,1.985,1.985,1.985,1.985,1.985,1.985,1.985,1.985,1.984,1.983,1.983,1.981,1.981,1.98,1.979,1.979,1.978,1.979,1.979,1.98,1.978,1.9795,1.979,1.978,1.978,1.978,1.978,1.978,1.978,1.979,1.979,1.979,1.977,1.977,1.977,1.974,1.974,1.974,1.974,1.975,1.973,1.973,1.974,1.975,1.974,1.974,1.973,1.975,1.974,1.976,1.976,1.976,1.975,1.975,1.973,1.97,1.969,1.97,1.969,1.969,1.969,1.967,1.967,1.968,1.969,1.969,1.969,1.969,1.969,1.97,1.97,1.969,1.97,1.972,1.975,1.975,1.975,1.977,1.977,1.977,1.976,1.975,1.976,1.976,1.974,1.972,1.972,1.972,1.973,1.972,1.972,1.973,1.973,1.973,1.973,1.973,1.973,1.973,1.974,1.974,1.975,1.973,1.973,1.975,1.975,1.974,1.973,1.973,1.973,1.973,1.973,1.973,1.973,1.973,1.973,1.973,1.973,1.973,1.971,1.971,1.97,1.969,1.968,1.968,1.966,1.964,1.962,1.959,1.956,1.954,1.951,1.948,1.946,1.944,1.944,1.942,1.941,1.941,1.941,1.943,1.945,1.945,1.948,1.948,1.948,1.945,1.942,1.941,1.938,1.936,1.932,1.928,1.921,1.916,1.911,1.908,1.907,1.903,1.903,1.902,1.898,1.891,1.883,1.873,1.866,1.858,1.851,1.845,1.838,1.83,1.822,1.817,1.8125,1.81,1.803,1.801,1.797,1.793,1.789,1.785,1.783,1.78,1.777,1.773,1.771,1.7705,1.768,1.766,1.762,1.758,1.755,1.753,1.747,1.747,1.745,1.745,1.741,1.74,1.739,1.737,1.735,1.733,1.732,1.731,1.7295,1.727,1.721,1.719,1.713,1.71,1.709,1.709,1.705,1.703,1.703,1.699,1.696,1.694,1.694,1.693,1.694,1.692,1.688,1.6875,1.688,1.6875,1.687,1.687,1.6875,1.687,1.687,1.686,1.685,1.684,1.681,1.68,1.677,1.677,1.674,1.673,1.672,1.671,1.67,1.67,1.668,1.667,1.667,1.663,1.663,1.663,1.661,1.66,1.657,1.654,1.653,1.653,1.652,1.65,1.651,1.649,1.646,1.6455,1.6455,1.647,1.649,1.647,1.6455,1.6455,1.645,1.647,1.647,1.647,1.6455,1.646,1.644,1.645,1.645,1.647,1.647,1.646,1.645,1.641,1.635,1.633,1.629,1.626,1.626,1.63,1.626,1.626,1.632,1.639,1.643,1.654,1.67,1.692,1.716,1.736,1.757,1.7705,1.775,1.78,1.785,1.775,1.72,1.542,1.249,1.177,1.158,1.148,1.138,1.127,1.133,1.136,1.142
0.9355,0.9326,0.9355,0.9434,0.9487,0.953,0.955,0.9634,0.9756,0.981,0.989,0.996,1.001,1.006,1.012,1.02,1.026,1.037,1.045,1.049,1.061,1.072,1.086,1.093,1.104,1.113,1.116,1.138,1.142,1.147,1.17,1.25,1.405,1.5625,1.59,1.591,1.598,1.604,1.61,1.61,1.615,1.619,1.631,1.64,1.653,1.668,1.6875,1.706,1.733,1.762,1.776,1.786,1.792,1.799,1.795,1.795,1.798,1.798,1.8,1.805,1.8125,1.814,1.821,1.831,1.842,1.851,1.86,1.866,1.871,1.876,1.883,1.888,1.893,1.895,1.9,1.904,1.909,1.918,1.928,1.929,1.933,1.9375,1.941,1.944,1.951,1.961,1.966,1.967,1.969,1.97,1.974,1.974,1.974,1.976,1.976,1.976,1.976,1.976,1.976,1.976,1.976,1.976,1.976,1.976,1.974,1.974,1.974,1.974,1.975,1.976,1.976,1.976,1.974,1.974,1.974,1.976,1.976,1.978,1.978,1.9795,1.9795,1.9795,1.979,1.9795,1.9795,1.9795,1.9795,1.9795,1.9795,1.9795,1.9795,1.9795,1.9795,1.978,1.978,1.976,1.976,1.975,1.974,1.974,1.974,1.973,1.974,1.974,1.974,1.974,1.974,1.974,1.974,1.972,1.972,1.974,1.974,1.974,1.972,1.974,1.972,1.971,1.97,1.97,1.968,1.968,1.968,1.968,1.968,1.968,1.968,1.967,1.967,1.967,1.967,1.967,1.967,1.968,1.969,1.97,1.97,1.969,1.967,1.966,1.966,1.965,1.965,1.964,1.961,1.961,1.961,1.961,1.963,1.965,1.965,1.965,1.964,1.965,1.965,1.966,1.966,1.968,1.971,1.974,1.974,1.974,1.974,1.974,1.974,1.974,1.975,1.972,1.971,1.97,1.971,1.971,1.971,1.969,1.971,1.971,1.97,1.969,1.968,1.968,1.969,1.969,1.969,1.968,1.968,1.967,1.968,1.967,1.967,1.967,1.967,1.968,1.968,1.968,1.968,1.968,1.968,1.968,1.968,1.968,1.967,1.967,1.967,1.965,1.965,1.965,1.963,1.962,1.961,1.96,1.957,1.956,1.953,1.951,1.948,1.947,1.943,1.94,1.938,1.937,1.936,1.935,1.935,1.935,1.937,1.9375,1.938,1.9375,1.9375,1.938,1.937,1.935,1.933,1.931,1.93,1.928,1.922,1.921,1.917,1.912,1.91,1.907,1.903,1.903,1.903,1.902,1.896,1.892,1.887,1.879,1.87,1.861,1.852,1.842,1.833,1.825,1.819,1.817,1.8125,1.811,1.806,1.804,1.799,1.794,1.79,1.788,1.782,1.78,1.777,1.774,1.7705,1.768,1.766,1.761,1.758,1.753,1.75,1.746,1.744,1.743,1.741,1.739,1.735,1.734,1.731,1.7295,1.728,1.726,1.725,1.723,1.718,1.714,1.711,1.706,1.703,1.7,1.7,1.698,1.695,1.694,1.693,1.69,1.688,1.688,1.688,1.6875,1.687,1.684,1.682,1.682,1.684,1.682,1.682,1.682,1.679,1.679,1.679,1.678,1.677,1.676,1.672,1.671,1.671,1.669,1.667,1.664,1.664,1.664,1.663,1.661,1.66,1.658,1.656,1.657,1.655,1.653,1.653,1.648,1.648,1.646,1.646,1.645,1.644,1.6455,1.644,1.642,1.641,1.64,1.645,1.6455,1.645,1.642,1.642,1.644,1.644,1.644,1.644,1.643,1.644,1.642,1.642,1.643,1.644,1.644,1.643,1.641,1.639,1.633,1.629,1.626,1.623,1.623,1.627,1.623,1.621,1.626,1.632,1.638,1.654,1.672,1.696,1.718,1.739,1.76,1.77,1.775,1.778,1.785,1.775,1.719,1.544,1.251,1.177,1.158,1.148,1.137,1.127,1.133,1.135,1.141
0.9375,0.935,0.9365,0.944,0.949,0.953,0.9565,0.9653,0.9756,0.982,0.9893,0.997,1.001,1.006,1.012,1.02,1.027,1.036,1.045,1.049,1.06,1.071,1.085,1.092,1.102,1.11,1.113,1.134,1.139,1.1455,1.164,1.241,1.386,1.552,1.583,1.589,1.595,1.602,1.607,1.607,1.612,1.615,1.627,1.636,1.646,1.661,1.682,1.698,1.727,1.757,1.773,1.781,1.788,1.794,1.793,1.792,1.795,1.795,1.797,1.803,1.811,1.813,1.819,1.83,1.842,1.85,1.859,1.865,1.872,1.874,1.881,1.888,1.89,1.893,1.897,1.903,1.909,1.918,1.928,1.929,1.931,1.937,1.939,1.942,1.947,1.954,1.96,1.962,1.964,1.964,1.965,1.967,1.967,1.968,1.968,1.968,1.968,1.968,1.967,1.967,1.967,1.965,1.965,1.965,1.964,1.965,1.965,1.965,1.965,1.968,1.968,1.968,1.968,1.967,1.966,1.968,1.968,1.968,1.97,1.971,1.97,1.97,1.969,1.968,1.97,1.97,1.97,1.97,1.97,1.97,1.97,1.97,1.971,1.97,1.97,1.969,1.97,1.968,1.968,1.968,1.967,1.966,1.968,1.968,1.968,1.967,1.967,1.967,1.965,1.964,1.965,1.965,1.965,1.965,1.965,1.965,1.965,1.963,1.962,1.962,1.961,1.961,1.961,1.961,1.961,1.961,1.961,1.961,1.963,1.962,1.96,1.96,1.961,1.963,1.963,1.965,1.965,1.962,1.961,1.96,1.96,1.959,1.958,1.957,1.954,1.954,1.954,1.953,1.953,1.954,1.955,1.958,1.957,1.958,1.958,1.96,1.961,1.964,1.966,1.968,1.969,1.968,1.968,1.968,1.968,1.968,1.968,1.967,1.967,1.967,1.965,1.967,1.967,1.967,1.967,1.967,1.967,1.968,1.965,1.966,1.964,1.964,1.964,1.965,1.963,1.962,1.961,1.961,1.961,1.961,1.959,1.96,1.962,1.961,1.961,1.961,1.961,1.961,1.961,1.961,1.961,1.959,1.959,1.959,1.957,1.956,1.954,1.955,1.953,1.952,1.951,1.948,1.947,1.945,1.942,1.939,1.937,1.935,1.933,1.931,1.93,1.929,1.928,1.928,1.931,1.931,1.931,1.931,1.931,1.929,1.927,1.927,1.926,1.924,1.924,1.922,1.922,1.918,1.914,1.91,1.908,1.903,1.899,1.897,1.898,1.8955,1.892,1.89,1.887,1.884,1.88,1.873,1.865,1.853,1.841,1.829,1.824,1.821,1.819,1.814,1.811,1.808,1.802,1.798,1.792,1.788,1.783,1.779,1.775,1.772,1.768,1.766,1.762,1.758,1.753,1.75,1.746,1.743,1.741,1.739,1.739,1.735,1.734,1.731,1.7295,1.728,1.725,1.724,1.722,1.72,1.715,1.71,1.708,1.702,1.697,1.696,1.695,1.694,1.693,1.69,1.688,1.687,1.684,1.683,1.683,1.682,1.681,1.677,1.675,1.676,1.675,1.675,1.674,1.673,1.672,1.67,1.668,1.667,1.666,1.665,1.663,1.661,1.66,1.659,1.657,1.655,1.656,1.655,1.655,1.652,1.652,1.651,1.648,1.648,1.647,1.646,1.646,1.643,1.641,1.64,1.641,1.637,1.637,1.638,1.636,1.634,1.634,1.633,1.637,1.638,1.637,1.635,1.634,1.635,1.637,1.637,1.636,1.636,1.637,1.635,1.634,1.636,1.637,1.638,1.638,1.634,1.631,1.627,1.624,1.62,1.618,1.619,1.623,1.619,1.617,1.624,1.629,1.639,1.656,1.678,1.703,1.726,1.747,1.761,1.77,1.773,1.776,1.785,1.772,1.717,1.545,1.253,1.177,1.158,1.147,1.138,1.127,1.134,1.135,1.141
0.94,0.938,0.939,0.947,0.954,0.9565,0.959,0.968,0.9785,0.9854,0.9907,0.9976,1.004,1.009,1.016,1.022,1.03,1.04,1.047,1.05,1.061,1.073,1.085,1.092,1.102,1.111,1.113,1.132,1.137,1.141,1.158,1.229,1.36,1.543,1.579,1.59,1.598,1.6045,1.611,1.61,1.612,1.617,1.628,1.635,1.645,1.657,1.678,1.694,1.724,1.754,1.772,1.781,1.788,1.796,1.794,1.796,1.798,1.799,1.8,1.807,1.814,1.818,1.825,1.833,1.845,1.8545,1.862,1.867,1.873,1.876,1.882,1.887,1.89,1.893,1.898,1.903,1.909,1.918,1.928,1.929,1.93,1.934,1.937,1.939,1.942,1.949,1.953,1.955,1.955,1.955,1.958,1.957,1.957,1.958,1.959,1.958,1.957,1.957,1.957,1.955,1.955,1.955,1.955,1.955,1.955,1.955,1.955,1.955,1.957,1.959,1.959,1.959,1.957,1.957,1.957,1.959,1.961,1.961,1.961,1.962,1.961,1.961,1.961,1.962,1.963,1.963,1.963,1.963,1.963,1.963,1.963,1.961,1.961,1.961,1.961,1.961,1.961,1.961,1.961,1.96,1.959,1.957,1.957,1.959,1.959,1.957,1.957,1.955,1.955,1.953,1.95,1.953,1.953,1.953,1.953,1.953,1.951,1.951,1.951,1.951,1.951,1.95,1.95,1.951,1.951,1.951,1.951,1.951,1.952,1.953,1.951,1.951,1.953,1.951,1.951,1.95,1.95,1.949,1.951,1.951,1.951,1.948,1.949,1.947,1.945,1.945,1.945,1.945,1.945,1.945,1.947,1.947,1.947,1.947,1.949,1.951,1.954,1.957,1.958,1.961,1.961,1.961,1.961,1.961,1.961,1.961,1.961,1.964,1.962,1.961,1.961,1.961,1.961,1.961,1.961,1.961,1.959,1.957,1.957,1.957,1.955,1.955,1.955,1.953,1.951,1.951,1.949,1.947,1.947,1.947,1.947,1.947,1.947,1.947,1.947,1.947,1.947,1.947,1.947,1.947,1.947,1.947,1.946,1.945,1.945,1.945,1.944,1.943,1.942,1.942,1.94,1.94,1.937,1.936,1.933,1.931,1.93,1.928,1.926,1.924,1.921,1.92,1.92,1.92,1.92,1.92,1.919,1.92,1.917,1.917,1.915,1.914,1.913,1.91,1.909,1.907,1.905,1.902,1.898,1.896,1.893,1.891,1.889,1.889,1.889,1.888,1.885,1.884,1.884,1.883,1.881,1.88,1.876,1.871,1.86,1.85,1.839,1.83,1.821,1.814,1.808,1.803,1.798,1.792,1.787,1.782,1.778,1.773,1.77,1.766,1.762,1.758,1.755,1.754,1.749,1.745,1.743,1.739,1.736,1.737,1.736,1.732,1.73,1.7295,1.727,1.726,1.723,1.721,1.72,1.715,1.713,1.707,1.704,1.697,1.693,1.691,1.69,1.688,1.686,1.685,1.683,1.679,1.678,1.678,1.678,1.677,1.675,1.672,1.671,1.671,1.671,1.67,1.668,1.669,1.667,1.665,1.664,1.662,1.659,1.658,1.657,1.654,1.654,1.652,1.651,1.65,1.65,1.649,1.648,1.646,1.6455,1.646,1.643,1.643,1.642,1.641,1.639,1.637,1.635,1.632,1.632,1.631,1.628,1.63,1.627,1.626,1.626,1.626,1.629,1.631,1.631,1.627,1.628,1.628,1.632,1.631,1.632,1.632,1.633,1.632,1.632,1.631,1.632,1.634,1.633,1.631,1.628,1.624,1.623,1.618,1.618,1.619,1.625,1.619,1.617,1.624,1.63,1.642,1.663,1.6875,1.714,1.735,1.751,1.764,1.769,1.775,1.776,1.783,1.772,1.714,1.545,1.257,1.178,1.159,1.15,1.141,1.129,1.136,1.137,1.142
0.942,0.939,0.941,0.948,0.9556,0.9585,0.9614,0.969,0.98,0.9844,0.9897,0.9976,1.003,1.01,1.017,1.024,1.031,1.042,1.048,1.052,1.063,1.075,1.087,1.094,1.105,1.116,1.116,1.132,1.137,1.142,1.155,1.22,1.349,1.532,1.582,1.59,1.597,1.608,1.613,1.614,1.612,1.619,1.626,1.633,1.643,1.654,1.677,1.691,1.721,1.754,1.773,1.783,1.789,1.799,1.796,1.798,1.801,1.805,1.809,1.814,1.821,1.824,1.83,1.84,1.848,1.856,1.864,1.87,1.876,1.879,1.884,1.889,1.893,1.8955,1.902,1.907,1.912,1.92,1.928,1.927,1.929,1.932,1.933,1.935,1.94,1.946,1.948,1.95,1.949,1.95,1.954,1.954,1.954,1.954,1.954,1.953,1.952,1.952,1.951,1.951,1.95,1.95,1.948,1.949,1.949,1.95,1.95,1.95,1.951,1.952,1.954,1.954,1.951,1.95,1.951,1.953,1.952,1.954,1.954,1.956,1.956,1.957,1.957,1.958,1.958,1.96,1.959,1.957,1.96,1.96,1.959,1.958,1.956,1.956,1.954,1.955,1.954,1.954,1.954,1.954,1.953,1.95,1.952,1.954,1.954,1.954,1.952,1.952,1.95,1.948,1.947,1.947,1.947,1.947,1.947,1.947,1.946,1.946,1.945,1.945,1.944,1.944,1.944,1.944,1.944,1.944,1.944,1.945,1.946,1.947,1.947,1.946,1.946,1.944,1.944,1.943,1.945,1.944,1.944,1.944,1.943,1.941,1.941,1.94,1.94,1.939,1.939,1.941,1.94,1.942,1.944,1.944,1.946,1.946,1.947,1.949,1.95,1.953,1.954,1.955,1.956,1.957,1.957,1.957,1.957,1.958,1.958,1.958,1.956,1.956,1.954,1.954,1.954,1.955,1.953,1.952,1.951,1.951,1.948,1.948,1.948,1.948,1.948,1.947,1.946,1.944,1.944,1.942,1.941,1.941,1.94,1.94,1.94,1.94,1.94,1.941,1.941,1.941,1.941,1.94,1.941,1.94,1.94,1.939,1.938,1.939,1.938,1.9375,1.9375,1.936,1.934,1.934,1.931,1.928,1.927,1.924,1.922,1.92,1.918,1.916,1.914,1.912,1.911,1.912,1.912,1.912,1.911,1.91,1.909,1.908,1.905,1.904,1.903,1.9,1.899,1.8955,1.894,1.892,1.89,1.887,1.885,1.884,1.884,1.884,1.885,1.884,1.883,1.882,1.882,1.882,1.882,1.881,1.878,1.875,1.87,1.86,1.852,1.843,1.834,1.822,1.816,1.808,1.801,1.794,1.789,1.784,1.78,1.776,1.772,1.767,1.763,1.76,1.758,1.753,1.749,1.745,1.743,1.739,1.735,1.735,1.733,1.731,1.7295,1.727,1.724,1.722,1.72,1.718,1.717,1.713,1.708,1.703,1.7,1.694,1.6875,1.687,1.684,1.682,1.681,1.68,1.675,1.674,1.672,1.672,1.671,1.67,1.67,1.667,1.666,1.667,1.664,1.663,1.663,1.664,1.663,1.661,1.66,1.658,1.657,1.654,1.652,1.651,1.649,1.647,1.646,1.645,1.645,1.645,1.644,1.642,1.641,1.641,1.638,1.637,1.637,1.635,1.634,1.631,1.629,1.628,1.628,1.627,1.625,1.625,1.624,1.622,1.621,1.621,1.625,1.626,1.624,1.622,1.623,1.625,1.626,1.627,1.627,1.626,1.629,1.627,1.626,1.626,1.628,1.629,1.629,1.626,1.623,1.62,1.618,1.615,1.615,1.616,1.621,1.616,1.615,1.62,1.63,1.645,1.667,1.697,1.721,1.74,1.755,1.764,1.769,1.775,1.773,1.781,1.769,1.713,1.547,1.261,1.178,1.159,1.149,1.139,1.126,1.136,1.135,1.143
0.943,0.94,0.941,0.948,0.955,0.9575,0.962,0.9697,0.98,0.985,0.9897,0.997,1.003,1.009,1.015,1.023,1.03,1.039,1.047,1.051,1.061,1.072,1.085,1.092,1.104,1.115,1.115,1.131,1.137,1.139,1.15,1.209,1.332,1.511,1.575,1.583,1.591,1.606,1.608,1.61,1.609,1.613,1.621,1.627,1.637,1.649,1.674,1.6875,1.712,1.748,1.769,1.777,1.785,1.792,1.793,1.797,1.801,1.804,1.808,1.814,1.822,1.826,1.831,1.84,1.849,1.856,1.863,1.87,1.873,1.876,1.883,1.888,1.893,1.8955,1.902,1.908,1.912,1.92,1.926,1.924,1.924,1.928,1.929,1.93,1.935,1.9375,1.942,1.942,1.944,1.944,1.945,1.945,1.945,1.945,1.945,1.944,1.943,1.943,1.941,1.941,1.942,1.939,1.9375,1.9375,1.94,1.939,1.939,1.941,1.941,1.943,1.943,1.944,1.941,1.942,1.942,1.943,1.944,1.944,1.945,1.947,1.947,1.946,1.946,1.947,1.948,1.95,1.948,1.95,1.95,1.95,1.95,1.947,1.947,1.945,1.945,1.945,1.945,1.945,1.945,1.945,1.945,1.944,1.945,1.945,1.945,1.945,1.945,1.944,1.943,1.942,1.942,1.942,1.942,1.942,1.942,1.942,1.94,1.938,1.938,1.938,1.938,1.9375,1.938,1.938,1.939,1.939,1.938,1.941,1.943,1.942,1.94,1.94,1.938,1.939,1.9375,1.94,1.938,1.939,1.939,1.939,1.9375,1.937,1.933,1.933,1.932,1.932,1.934,1.934,1.937,1.938,1.938,1.938,1.941,1.942,1.943,1.944,1.945,1.945,1.945,1.946,1.947,1.946,1.949,1.949,1.949,1.946,1.946,1.948,1.947,1.945,1.945,1.945,1.945,1.944,1.944,1.944,1.942,1.94,1.94,1.94,1.94,1.94,1.94,1.939,1.938,1.9375,1.937,1.937,1.937,1.937,1.937,1.937,1.937,1.937,1.9375,1.9375,1.9375,1.9375,1.936,1.9375,1.935,1.936,1.935,1.933,1.933,1.933,1.933,1.931,1.931,1.931,1.929,1.928,1.925,1.922,1.921,1.918,1.916,1.913,1.91,1.91,1.907,1.906,1.906,1.906,1.906,1.906,1.906,1.905,1.903,1.902,1.901,1.898,1.898,1.8955,1.894,1.891,1.89,1.89,1.887,1.886,1.884,1.884,1.883,1.883,1.883,1.88,1.878,1.875,1.874,1.875,1.876,1.874,1.873,1.868,1.865,1.86,1.856,1.852,1.845,1.837,1.829,1.819,1.811,1.803,1.796,1.791,1.784,1.782,1.776,1.771,1.765,1.761,1.758,1.755,1.749,1.746,1.743,1.739,1.737,1.735,1.733,1.731,1.7295,1.726,1.723,1.721,1.72,1.717,1.715,1.712,1.706,1.701,1.695,1.689,1.685,1.682,1.68,1.677,1.675,1.672,1.671,1.667,1.665,1.665,1.664,1.664,1.662,1.661,1.657,1.658,1.657,1.657,1.657,1.656,1.654,1.654,1.652,1.651,1.648,1.647,1.644,1.644,1.642,1.641,1.639,1.639,1.639,1.638,1.638,1.636,1.635,1.636,1.632,1.633,1.632,1.632,1.632,1.629,1.627,1.625,1.625,1.623,1.623,1.622,1.62,1.619,1.618,1.619,1.621,1.622,1.62,1.618,1.619,1.619,1.62,1.62,1.621,1.622,1.623,1.622,1.622,1.622,1.624,1.624,1.623,1.622,1.619,1.615,1.614,1.611,1.611,1.614,1.619,1.614,1.612,1.622,1.634,1.647,1.678,1.703,1.732,1.745,1.755,1.763,1.767,1.771,1.77,1.776,1.766,1.709,1.548,1.27,1.179,1.159,1.147,1.138,1.125,1.136,1.135,1.143
0.943,0.939,0.941,0.9473,0.954,0.9575,0.961,0.97,0.9785,0.9844,0.989,0.9937,0.9995,1.006,1.013,1.0205,1.027,1.036,1.043,1.048,1.06,1.071,1.083,1.09,1.103,1.115,1.117,1.13,1.135,1.137,1.1455,1.2,1.316,1.485,1.5625,1.576,1.585,1.596,1.6,1.603,1.601,1.605,1.614,1.619,1.628,1.641,1.663,1.676,1.7,1.734,1.754,1.764,1.772,1.781,1.779,1.783,1.787,1.79,1.796,1.803,1.812,1.816,1.82,1.828,1.838,1.847,1.853,1.859,1.864,1.867,1.875,1.882,1.887,1.892,1.897,1.902,1.907,1.915,1.919,1.917,1.918,1.92,1.921,1.922,1.927,1.931,1.933,1.934,1.934,1.933,1.935,1.934,1.933,1.934,1.932,1.93,1.928,1.928,1.926,1.926,1.925,1.924,1.924,1.924,1.924,1.924,1.926,1.926,1.928,1.929,1.932,1.932,1.929,1.929,1.931,1.931,1.931,1.934,1.934,1.933,1.933,1.933,1.933,1.934,1.934,1.934,1.934,1.934,1.934,1.934,1.934,1.934,1.934,1.934,1.934,1.934,1.934,1.934,1.935,1.936,1.935,1.934,1.936,1.936,1.937,1.936,1.936,1.935,1.934,1.934,1.934,1.934,1.934,1.934,1.934,1.934,1.934,1.933,1.932,1.932,1.931,1.931,1.932,1.933,1.935,1.935,1.936,1.937,1.936,1.936,1.933,1.933,1.935,1.936,1.936,1.936,1.936,1.936,1.935,1.935,1.934,1.932,1.931,1.929,1.928,1.927,1.927,1.929,1.93,1.932,1.934,1.933,1.935,1.935,1.936,1.936,1.936,1.936,1.936,1.935,1.935,1.935,1.935,1.936,1.935,1.935,1.936,1.937,1.936,1.936,1.936,1.936,1.936,1.936,1.935,1.935,1.936,1.936,1.934,1.934,1.934,1.935,1.934,1.934,1.933,1.933,1.931,1.931,1.931,1.932,1.933,1.933,1.933,1.933,1.934,1.933,1.933,1.933,1.933,1.933,1.932,1.932,1.93,1.929,1.928,1.928,1.928,1.926,1.924,1.924,1.923,1.921,1.919,1.916,1.915,1.912,1.91,1.907,1.905,1.903,1.902,1.901,1.9,1.901,1.901,1.902,1.901,1.902,1.903,1.901,1.9,1.901,1.9,1.899,1.896,1.893,1.891,1.891,1.887,1.885,1.883,1.88,1.878,1.877,1.875,1.872,1.87,1.869,1.867,1.868,1.868,1.867,1.866,1.863,1.861,1.857,1.8545,1.852,1.849,1.844,1.839,1.831,1.822,1.813,1.805,1.796,1.787,1.782,1.774,1.768,1.763,1.761,1.756,1.753,1.749,1.745,1.743,1.739,1.737,1.736,1.733,1.73,1.729,1.724,1.722,1.721,1.719,1.715,1.714,1.71,1.705,1.7,1.694,1.6875,1.683,1.679,1.677,1.673,1.67,1.666,1.663,1.66,1.659,1.656,1.656,1.655,1.653,1.651,1.647,1.646,1.646,1.6455,1.645,1.645,1.642,1.642,1.641,1.639,1.635,1.635,1.632,1.631,1.631,1.629,1.629,1.629,1.628,1.63,1.629,1.628,1.629,1.629,1.628,1.628,1.628,1.628,1.628,1.625,1.622,1.621,1.621,1.618,1.616,1.615,1.614,1.612,1.611,1.609,1.612,1.614,1.612,1.609,1.609,1.61,1.612,1.612,1.612,1.614,1.615,1.614,1.613,1.615,1.616,1.616,1.616,1.613,1.611,1.608,1.606,1.6045,1.6045,1.606,1.611,1.606,1.611,1.623,1.636,1.652,1.685,1.71,1.733,1.747,1.755,1.761,1.766,1.767,1.766,1.771,1.76,1.706,1.548,1.274,1.181,1.16,1.149,1.139,1.126,1.138,1.135,1.145
0.943,0.9404,0.9424,0.949,0.9565,0.9604,0.9644,0.9727,0.9814,0.987,0.9907,0.995,1.001,1.009,1.015,1.022,1.029,1.037,1.046,1.05,1.061,1.073,1.084,1.091,1.105,1.117,1.122,1.132,1.136,1.138,1.143,1.193,1.301,1.467,1.559,1.574,1.585,1.595,1.601,1.604,1.604,1.6045,1.614,1.619,1.626,1.639,1.66,1.673,1.696,1.729,1.751,1.765,1.773,1.784,1.784,1.789,1.795,1.799,1.804,1.811,1.817,1.822,1.827,1.832,1.841,1.848,1.853,1.859,1.866,1.87,1.876,1.883,1.89,1.893,1.897,1.902,1.906,1.911,1.915,1.913,1.912,1.916,1.916,1.918,1.92,1.924,1.927,1.928,1.929,1.929,1.929,1.929,1.926,1.926,1.925,1.924,1.921,1.92,1.918,1.918,1.918,1.915,1.915,1.915,1.917,1.918,1.918,1.918,1.919,1.92,1.922,1.923,1.92,1.92,1.922,1.924,1.924,1.924,1.924,1.927,1.927,1.926,1.925,1.927,1.927,1.926,1.926,1.926,1.928,1.928,1.928,1.926,1.924,1.924,1.924,1.924,1.924,1.926,1.928,1.928,1.928,1.928,1.928,1.93,1.931,1.928,1.928,1.928,1.926,1.924,1.925,1.926,1.926,1.928,1.928,1.926,1.924,1.924,1.924,1.924,1.922,1.924,1.924,1.925,1.926,1.928,1.928,1.928,1.928,1.929,1.931,1.929,1.928,1.928,1.928,1.928,1.928,1.926,1.924,1.924,1.924,1.92,1.92,1.918,1.918,1.919,1.922,1.925,1.924,1.929,1.93,1.93,1.93,1.93,1.93,1.93,1.93,1.929,1.928,1.928,1.928,1.928,1.929,1.928,1.929,1.929,1.93,1.931,1.93,1.93,1.928,1.928,1.928,1.928,1.928,1.928,1.928,1.928,1.928,1.926,1.929,1.927,1.926,1.924,1.924,1.924,1.922,1.921,1.922,1.922,1.924,1.922,1.922,1.922,1.923,1.924,1.924,1.924,1.923,1.922,1.922,1.92,1.92,1.918,1.918,1.918,1.917,1.915,1.915,1.914,1.913,1.91,1.909,1.907,1.907,1.902,1.901,1.898,1.897,1.897,1.895,1.894,1.894,1.894,1.894,1.894,1.895,1.896,1.894,1.894,1.894,1.894,1.894,1.894,1.891,1.889,1.884,1.883,1.881,1.876,1.876,1.873,1.871,1.872,1.869,1.868,1.868,1.867,1.865,1.866,1.867,1.866,1.863,1.861,1.858,1.854,1.852,1.849,1.846,1.841,1.84,1.833,1.828,1.819,1.811,1.805,1.794,1.787,1.78,1.772,1.767,1.765,1.76,1.757,1.753,1.749,1.745,1.74,1.737,1.734,1.73,1.728,1.725,1.723,1.721,1.72,1.716,1.714,1.711,1.708,1.702,1.697,1.691,1.687,1.682,1.677,1.675,1.671,1.666,1.664,1.661,1.657,1.655,1.653,1.651,1.651,1.649,1.646,1.645,1.644,1.642,1.64,1.64,1.639,1.638,1.636,1.635,1.632,1.632,1.628,1.628,1.627,1.627,1.624,1.625,1.624,1.625,1.625,1.625,1.624,1.624,1.625,1.623,1.625,1.625,1.625,1.623,1.621,1.619,1.617,1.616,1.615,1.612,1.611,1.61,1.607,1.606,1.606,1.607,1.608,1.606,1.606,1.606,1.606,1.606,1.606,1.607,1.606,1.608,1.607,1.607,1.606,1.609,1.61,1.608,1.606,1.605,1.603,1.602,1.599,1.599,1.602,1.606,1.606,1.61,1.625,1.641,1.661,1.6875,1.718,1.739,1.748,1.755,1.759,1.764,1.765,1.763,1.768,1.756,1.702,1.547,1.28,1.183,1.161,1.15,1.142,1.127,1.14,1.136,1.145
0.9463,0.9434,0.9453,0.9526,0.961,0.963,0.9683,0.977,0.984,0.9893,0.9937,0.9985,1.004,1.011,1.018,1.025,1.033,1.041,1.049,1.054,1.063,1.077,1.087,1.093,1.106,1.12,1.124,1.135,1.139,1.139,1.144,1.188,1.285,1.455,1.554,1.572,1.584,1.595,1.601,1.604,1.603,1.605,1.612,1.617,1.623,1.636,1.654,1.666,1.689,1.722,1.745,1.761,1.773,1.784,1.784,1.79,1.796,1.801,1.806,1.812,1.819,1.825,1.828,1.832,1.841,1.848,1.854,1.86,1.864,1.87,1.876,1.882,1.887,1.892,1.8955,1.9,1.901,1.906,1.909,1.907,1.908,1.909,1.909,1.91,1.913,1.918,1.919,1.92,1.922,1.921,1.921,1.921,1.918,1.918,1.918,1.916,1.915,1.914,1.913,1.912,1.912,1.911,1.91,1.91,1.91,1.912,1.911,1.91,1.911,1.912,1.913,1.914,1.912,1.912,1.915,1.915,1.915,1.915,1.915,1.916,1.915,1.915,1.915,1.915,1.915,1.915,1.915,1.916,1.917,1.917,1.917,1.915,1.915,1.915,1.915,1.915,1.915,1.915,1.917,1.917,1.917,1.918,1.919,1.919,1.921,1.919,1.919,1.919,1.918,1.918,1.918,1.919,1.919,1.92,1.921,1.919,1.919,1.919,1.918,1.918,1.919,1.918,1.919,1.919,1.919,1.919,1.918,1.921,1.923,1.924,1.922,1.922,1.922,1.921,1.918,1.918,1.918,1.918,1.916,1.915,1.912,1.91,1.91,1.91,1.911,1.913,1.916,1.919,1.919,1.922,1.921,1.921,1.921,1.921,1.922,1.92,1.92,1.919,1.919,1.919,1.919,1.919,1.92,1.921,1.921,1.921,1.922,1.923,1.922,1.922,1.921,1.922,1.922,1.922,1.922,1.922,1.922,1.922,1.92,1.919,1.92,1.92,1.918,1.919,1.918,1.917,1.916,1.916,1.916,1.916,1.916,1.915,1.915,1.915,1.914,1.915,1.915,1.915,1.914,1.915,1.914,1.912,1.913,1.913,1.912,1.91,1.909,1.909,1.907,1.907,1.905,1.903,1.901,1.9,1.9,1.897,1.8955,1.892,1.891,1.889,1.888,1.887,1.887,1.886,1.886,1.887,1.887,1.887,1.887,1.887,1.887,1.887,1.887,1.887,1.884,1.881,1.877,1.874,1.872,1.871,1.869,1.866,1.865,1.865,1.865,1.865,1.862,1.861,1.861,1.861,1.862,1.861,1.858,1.854,1.85,1.844,1.842,1.841,1.839,1.835,1.834,1.831,1.826,1.822,1.818,1.814,1.806,1.799,1.792,1.785,1.777,1.7705,1.765,1.764,1.758,1.753,1.748,1.74,1.736,1.732,1.729,1.726,1.723,1.72,1.718,1.716,1.713,1.709,1.707,1.703,1.697,1.693,1.689,1.683,1.679,1.676,1.673,1.671,1.667,1.664,1.66,1.655,1.651,1.648,1.648,1.646,1.645,1.642,1.641,1.64,1.637,1.637,1.634,1.635,1.634,1.632,1.63,1.629,1.628,1.626,1.624,1.624,1.624,1.621,1.621,1.621,1.621,1.621,1.621,1.62,1.621,1.62,1.62,1.621,1.62,1.62,1.619,1.617,1.613,1.612,1.612,1.608,1.607,1.605,1.604,1.602,1.601,1.599,1.601,1.602,1.6,1.598,1.598,1.598,1.6,1.6,1.6,1.602,1.603,1.603,1.601,1.601,1.604,1.6045,1.604,1.601,1.6,1.596,1.596,1.595,1.595,1.599,1.6045,1.604,1.611,1.626,1.645,1.663,1.689,1.723,1.74,1.748,1.753,1.758,1.761,1.762,1.76,1.765,1.752,1.698,1.548,1.283,1.181,1.157,1.147,1.136,1.124,1.133,1.131,1.141
0.948,0.9453,0.9473,0.955,0.9624,0.965,0.9697,0.979,0.986,0.9917,0.9946,1.0,1.007,1.014,1.021,1.029,1.037,1.046,1.054,1.058,1.068,1.081,1.092,1.097,1.109,1.121,1.127,1.134,1.138,1.14,1.142,1.185,1.268,1.44,1.547,1.573,1.588,1.599,1.6045,1.607,1.607,1.61,1.617,1.62,1.626,1.637,1.653,1.665,1.687,1.715,1.742,1.759,1.772,1.784,1.785,1.791,1.797,1.802,1.805,1.811,1.82,1.825,1.828,1.834,1.842,1.849,1.8545,1.859,1.864,1.867,1.874,1.879,1.882,1.886,1.892,1.895,1.897,1.901,1.903,1.901,1.9,1.903,1.904,1.905,1.908,1.909,1.912,1.911,1.913,1.912,1.912,1.912,1.912,1.911,1.91,1.909,1.907,1.907,1.907,1.904,1.904,1.904,1.902,1.905,1.904,1.904,1.904,1.904,1.905,1.907,1.907,1.907,1.907,1.907,1.907,1.908,1.907,1.908,1.909,1.91,1.908,1.907,1.907,1.907,1.906,1.908,1.908,1.908,1.91,1.909,1.909,1.907,1.907,1.907,1.907,1.907,1.907,1.906,1.907,1.907,1.907,1.908,1.909,1.909,1.91,1.91,1.91,1.91,1.91,1.91,1.909,1.911,1.911,1.911,1.914,1.914,1.914,1.914,1.914,1.914,1.914,1.915,1.914,1.914,1.914,1.914,1.916,1.916,1.918,1.915,1.916,1.914,1.911,1.909,1.909,1.907,1.907,1.906,1.904,1.902,1.902,1.902,1.901,1.903,1.906,1.907,1.909,1.912,1.915,1.916,1.916,1.916,1.916,1.914,1.911,1.91,1.91,1.91,1.909,1.909,1.909,1.909,1.909,1.909,1.909,1.912,1.911,1.911,1.911,1.911,1.911,1.911,1.911,1.911,1.911,1.911,1.911,1.912,1.909,1.911,1.911,1.912,1.909,1.908,1.907,1.907,1.906,1.907,1.907,1.908,1.907,1.907,1.906,1.906,1.906,1.906,1.906,1.906,1.906,1.906,1.906,1.905,1.902,1.904,1.902,1.903,1.901,1.901,1.899,1.899,1.898,1.897,1.896,1.894,1.893,1.892,1.89,1.888,1.885,1.883,1.88,1.877,1.876,1.878,1.88,1.878,1.878,1.876,1.877,1.876,1.876,1.876,1.876,1.877,1.875,1.871,1.868,1.867,1.864,1.862,1.86,1.86,1.859,1.857,1.858,1.855,1.8545,1.852,1.851,1.851,1.849,1.849,1.846,1.842,1.84,1.837,1.833,1.834,1.833,1.83,1.83,1.828,1.826,1.822,1.819,1.817,1.813,1.807,1.799,1.792,1.785,1.779,1.771,1.766,1.758,1.752,1.745,1.739,1.736,1.731,1.7295,1.726,1.722,1.721,1.719,1.715,1.713,1.708,1.706,1.7,1.695,1.69,1.686,1.68,1.677,1.672,1.672,1.667,1.664,1.661,1.658,1.652,1.647,1.645,1.644,1.643,1.641,1.639,1.635,1.636,1.632,1.632,1.631,1.629,1.627,1.627,1.625,1.624,1.623,1.62,1.62,1.62,1.619,1.619,1.618,1.616,1.617,1.618,1.617,1.616,1.616,1.616,1.616,1.616,1.616,1.616,1.616,1.613,1.61,1.608,1.606,1.605,1.602,1.6,1.598,1.594,1.594,1.593,1.594,1.594,1.593,1.591,1.591,1.592,1.593,1.594,1.594,1.594,1.598,1.598,1.598,1.598,1.599,1.6,1.599,1.597,1.595,1.594,1.594,1.591,1.593,1.597,1.603,1.604,1.611,1.63,1.651,1.668,1.701,1.728,1.742,1.749,1.75,1.753,1.758,1.76,1.757,1.76,1.747,1.694,1.544,1.284,1.18,1.156,1.1455,1.137,1.125,1.131,1.129,1.136
0.9507,0.946,0.948,0.9565,0.963,0.9663,0.972,0.98,0.9863,0.9927,0.997,1.003,1.01,1.016,1.024,1.031,1.041,1.05,1.058,1.062,1.072,1.086,1.096,1.102,1.113,1.124,1.13,1.137,1.139,1.142,1.1455,1.184,1.255,1.421,1.535,1.574,1.593,1.601,1.606,1.611,1.61,1.615,1.621,1.624,1.63,1.641,1.656,1.666,1.6875,1.713,1.735,1.759,1.774,1.789,1.79,1.794,1.8,1.805,1.809,1.815,1.823,1.828,1.832,1.836,1.844,1.849,1.8545,1.858,1.861,1.865,1.868,1.872,1.875,1.88,1.886,1.889,1.892,1.895,1.896,1.8955,1.8955,1.896,1.898,1.9,1.902,1.905,1.906,1.906,1.907,1.907,1.907,1.906,1.904,1.904,1.904,1.901,1.901,1.9,1.898,1.898,1.897,1.896,1.8955,1.897,1.896,1.897,1.897,1.898,1.898,1.899,1.901,1.901,1.901,1.901,1.901,1.901,1.901,1.902,1.902,1.904,1.902,1.901,1.901,1.901,1.9,1.901,1.901,1.902,1.901,1.901,1.901,1.9,1.9,1.9,1.9,1.901,1.901,1.901,1.901,1.901,1.901,1.901,1.9,1.902,1.904,1.904,1.904,1.904,1.904,1.904,1.904,1.904,1.904,1.906,1.906,1.907,1.908,1.908,1.908,1.908,1.908,1.908,1.908,1.907,1.91,1.911,1.91,1.909,1.909,1.91,1.905,1.904,1.901,1.899,1.896,1.8955,1.8955,1.894,1.894,1.894,1.895,1.895,1.8955,1.8955,1.9,1.902,1.905,1.908,1.909,1.908,1.906,1.906,1.906,1.906,1.906,1.905,1.905,1.904,1.903,1.901,1.901,1.902,1.902,1.903,1.904,1.904,1.905,1.905,1.904,1.904,1.904,1.904,1.904,1.905,1.905,1.905,1.906,1.905,1.904,1.904,1.904,1.904,1.903,1.902,1.901,1.901,1.901,1.901,1.901,1.901,1.901,1.901,1.9,1.898,1.898,1.898,1.898,1.898,1.898,1.899,1.897,1.897,1.897,1.896,1.8955,1.8955,1.895,1.893,1.893,1.891,1.889,1.889,1.888,1.888,1.886,1.885,1.882,1.88,1.878,1.876,1.875,1.874,1.872,1.872,1.872,1.872,1.872,1.87,1.871,1.87,1.87,1.87,1.87,1.87,1.867,1.865,1.862,1.86,1.859,1.856,1.8545,1.853,1.851,1.85,1.849,1.849,1.847,1.846,1.845,1.843,1.843,1.841,1.839,1.836,1.834,1.832,1.832,1.829,1.829,1.827,1.825,1.825,1.823,1.82,1.816,1.814,1.811,1.807,1.803,1.796,1.79,1.784,1.776,1.771,1.763,1.755,1.748,1.742,1.738,1.734,1.73,1.728,1.726,1.723,1.719,1.716,1.713,1.708,1.703,1.699,1.694,1.69,1.685,1.678,1.672,1.668,1.665,1.661,1.657,1.654,1.651,1.646,1.642,1.641,1.639,1.637,1.636,1.633,1.631,1.629,1.626,1.625,1.625,1.622,1.622,1.621,1.621,1.618,1.617,1.616,1.615,1.615,1.615,1.614,1.612,1.612,1.613,1.613,1.613,1.612,1.612,1.612,1.612,1.612,1.612,1.612,1.611,1.609,1.605,1.604,1.603,1.599,1.598,1.595,1.593,1.591,1.589,1.588,1.589,1.589,1.588,1.587,1.587,1.588,1.589,1.588,1.589,1.59,1.591,1.591,1.592,1.591,1.592,1.593,1.592,1.59,1.59,1.587,1.586,1.587,1.589,1.592,1.6,1.603,1.614,1.635,1.653,1.68,1.707,1.73,1.743,1.745,1.745,1.749,1.752,1.751,1.749,1.753,1.739,1.687,1.54,1.282,1.18,1.155,1.1455,1.138,1.129,1.132,1.128,1.131
0.9517,0.946,0.948,0.955,0.962,0.9663,0.972,0.979,0.9854,0.9927,0.9956,1.002,1.008,1.013,1.0205,1.028,1.039,1.047,1.053,1.057,1.064,1.076,1.085,1.092,1.102,1.11,1.116,1.125,1.131,1.136,1.14,1.177,1.243,1.393,1.517,1.5625,1.586,1.594,1.601,1.606,1.606,1.611,1.621,1.623,1.626,1.637,1.65,1.661,1.68,1.703,1.725,1.751,1.771,1.788,1.794,1.802,1.809,1.812,1.816,1.822,1.83,1.833,1.837,1.842,1.846,1.851,1.855,1.857,1.86,1.864,1.868,1.871,1.874,1.877,1.883,1.886,1.887,1.89,1.891,1.89,1.89,1.891,1.893,1.893,1.895,1.8955,1.898,1.898,1.897,1.8955,1.896,1.895,1.895,1.895,1.893,1.892,1.89,1.889,1.886,1.886,1.886,1.886,1.886,1.885,1.885,1.885,1.885,1.885,1.886,1.887,1.89,1.888,1.887,1.889,1.889,1.889,1.889,1.889,1.889,1.891,1.89,1.89,1.889,1.891,1.892,1.893,1.893,1.893,1.893,1.893,1.893,1.895,1.895,1.895,1.895,1.895,1.895,1.895,1.895,1.895,1.895,1.895,1.895,1.895,1.895,1.895,1.895,1.895,1.895,1.895,1.895,1.895,1.895,1.8955,1.896,1.897,1.898,1.898,1.898,1.897,1.896,1.8955,1.8955,1.899,1.9,1.901,1.901,1.901,1.901,1.897,1.895,1.895,1.892,1.89,1.889,1.886,1.883,1.884,1.883,1.884,1.884,1.885,1.886,1.889,1.892,1.8955,1.898,1.899,1.901,1.901,1.9,1.898,1.898,1.899,1.899,1.898,1.898,1.898,1.897,1.895,1.895,1.8955,1.896,1.898,1.898,1.898,1.898,1.897,1.896,1.894,1.895,1.895,1.895,1.895,1.895,1.895,1.894,1.894,1.894,1.894,1.895,1.893,1.893,1.893,1.89,1.891,1.891,1.891,1.891,1.891,1.89,1.89,1.889,1.89,1.89,1.89,1.89,1.89,1.889,1.887,1.888,1.886,1.886,1.886,1.886,1.886,1.884,1.883,1.883,1.88,1.881,1.882,1.881,1.88,1.879,1.877,1.876,1.874,1.871,1.87,1.868,1.867,1.867,1.867,1.867,1.867,1.867,1.866,1.863,1.865,1.865,1.864,1.863,1.862,1.86,1.857,1.854,1.852,1.85,1.85,1.847,1.845,1.844,1.844,1.844,1.844,1.844,1.842,1.842,1.841,1.839,1.837,1.835,1.831,1.828,1.826,1.825,1.822,1.819,1.816,1.817,1.813,1.811,1.81,1.808,1.806,1.804,1.803,1.8,1.798,1.792,1.789,1.782,1.777,1.771,1.765,1.759,1.751,1.743,1.736,1.731,1.729,1.727,1.723,1.722,1.718,1.714,1.709,1.706,1.7,1.694,1.69,1.685,1.678,1.671,1.664,1.659,1.657,1.653,1.65,1.647,1.6455,1.641,1.64,1.639,1.639,1.634,1.632,1.628,1.627,1.623,1.62,1.62,1.618,1.616,1.615,1.615,1.614,1.614,1.614,1.612,1.614,1.612,1.612,1.61,1.61,1.611,1.611,1.61,1.61,1.61,1.61,1.608,1.609,1.61,1.61,1.61,1.606,1.606,1.6045,1.604,1.603,1.6,1.599,1.598,1.595,1.594,1.591,1.591,1.591,1.589,1.589,1.588,1.588,1.588,1.589,1.588,1.589,1.589,1.589,1.589,1.589,1.591,1.591,1.589,1.588,1.586,1.585,1.585,1.586,1.588,1.591,1.6,1.606,1.622,1.645,1.668,1.691,1.716,1.735,1.744,1.744,1.743,1.745,1.747,1.745,1.744,1.746,1.732,1.68,1.534,1.276,1.177,1.152,1.142,1.139,1.129,1.131,1.127,1.127
0.9546,0.9487,0.9497,0.956,0.963,0.968,0.9746,0.9805,0.9863,0.9956,0.9995,1.005,1.009,1.015,1.021,1.03,1.041,1.049,1.055,1.058,1.065,1.077,1.083,1.089,1.1,1.109,1.114,1.123,1.13,1.136,1.141,1.175,1.233,1.369,1.502,1.557,1.578,1.589,1.6,1.6045,1.605,1.61,1.618,1.621,1.625,1.634,1.6455,1.654,1.67,1.693,1.713,1.74,1.763,1.783,1.791,1.799,1.807,1.8125,1.815,1.822,1.826,1.832,1.835,1.839,1.844,1.846,1.851,1.854,1.856,1.859,1.863,1.867,1.87,1.871,1.877,1.88,1.883,1.883,1.884,1.883,1.883,1.883,1.885,1.885,1.887,1.888,1.888,1.888,1.887,1.886,1.886,1.886,1.885,1.885,1.884,1.882,1.88,1.879,1.878,1.878,1.877,1.876,1.875,1.875,1.874,1.874,1.874,1.875,1.874,1.878,1.878,1.877,1.876,1.877,1.877,1.877,1.877,1.879,1.878,1.88,1.88,1.88,1.88,1.88,1.881,1.883,1.883,1.883,1.883,1.883,1.883,1.884,1.886,1.886,1.884,1.885,1.886,1.886,1.886,1.887,1.887,1.887,1.885,1.886,1.887,1.887,1.887,1.887,1.887,1.888,1.888,1.887,1.887,1.888,1.888,1.888,1.888,1.89,1.89,1.889,1.888,1.888,1.893,1.893,1.893,1.892,1.893,1.892,1.892,1.889,1.885,1.882,1.881,1.879,1.876,1.874,1.874,1.875,1.874,1.875,1.877,1.878,1.88,1.884,1.888,1.891,1.891,1.893,1.893,1.894,1.893,1.893,1.893,1.893,1.891,1.89,1.89,1.89,1.888,1.887,1.887,1.888,1.89,1.89,1.89,1.89,1.89,1.887,1.887,1.887,1.886,1.886,1.886,1.886,1.886,1.886,1.884,1.883,1.883,1.883,1.883,1.884,1.882,1.883,1.882,1.881,1.882,1.88,1.88,1.88,1.88,1.88,1.88,1.88,1.88,1.88,1.88,1.878,1.878,1.878,1.878,1.878,1.878,1.878,1.878,1.878,1.877,1.875,1.875,1.875,1.875,1.874,1.874,1.872,1.871,1.871,1.869,1.866,1.865,1.862,1.861,1.86,1.859,1.859,1.856,1.857,1.855,1.8545,1.8545,1.854,1.855,1.8545,1.854,1.854,1.85,1.846,1.844,1.843,1.841,1.841,1.838,1.838,1.836,1.836,1.836,1.837,1.838,1.838,1.837,1.836,1.834,1.831,1.829,1.826,1.822,1.818,1.816,1.8125,1.8125,1.81,1.808,1.808,1.805,1.802,1.802,1.801,1.8,1.799,1.798,1.795,1.793,1.789,1.785,1.781,1.776,1.771,1.766,1.76,1.754,1.746,1.739,1.733,1.729,1.724,1.722,1.719,1.715,1.711,1.706,1.701,1.695,1.691,1.685,1.677,1.672,1.667,1.662,1.657,1.652,1.65,1.647,1.644,1.639,1.637,1.635,1.634,1.631,1.627,1.626,1.622,1.621,1.618,1.616,1.614,1.614,1.612,1.611,1.61,1.609,1.609,1.609,1.609,1.609,1.609,1.608,1.607,1.608,1.608,1.608,1.606,1.606,1.607,1.606,1.606,1.607,1.607,1.605,1.6045,1.604,1.6045,1.6045,1.601,1.599,1.597,1.595,1.594,1.592,1.589,1.59,1.588,1.588,1.587,1.586,1.585,1.585,1.585,1.585,1.585,1.586,1.586,1.586,1.586,1.587,1.585,1.585,1.585,1.584,1.583,1.581,1.582,1.585,1.591,1.6,1.61,1.63,1.65,1.68,1.698,1.717,1.735,1.74,1.739,1.738,1.74,1.741,1.739,1.737,1.74,1.726,1.674,1.526,1.271,1.175,1.149,1.14,1.138,1.13,1.129,1.126,1.125
0.956,0.949,0.95,0.9565,0.9624,0.9683,0.9746,0.982,0.9893,0.998,1.002,1.007,1.012,1.02,1.026,1.037,1.048,1.058,1.0625,1.065,1.073,1.083,1.091,1.095,1.1045,1.114,1.12,1.127,1.136,1.141,1.145,1.174,1.227,1.346,1.486,1.557,1.579,1.592,1.604,1.608,1.611,1.615,1.622,1.624,1.628,1.638,1.648,1.655,1.67,1.689,1.709,1.734,1.761,1.78,1.79,1.8,1.809,1.812,1.816,1.822,1.826,1.83,1.833,1.836,1.841,1.843,1.848,1.85,1.852,1.854,1.856,1.86,1.862,1.865,1.871,1.874,1.875,1.878,1.879,1.877,1.877,1.877,1.877,1.877,1.88,1.881,1.883,1.883,1.881,1.881,1.881,1.88,1.877,1.877,1.877,1.876,1.874,1.873,1.872,1.872,1.87,1.868,1.868,1.868,1.868,1.867,1.868,1.868,1.868,1.868,1.868,1.868,1.868,1.868,1.868,1.869,1.87,1.871,1.872,1.872,1.872,1.872,1.872,1.874,1.874,1.874,1.874,1.875,1.875,1.875,1.875,1.875,1.875,1.875,1.875,1.875,1.875,1.875,1.877,1.877,1.877,1.877,1.877,1.877,1.877,1.877,1.877,1.877,1.878,1.879,1.879,1.879,1.879,1.88,1.881,1.881,1.881,1.881,1.881,1.881,1.881,1.884,1.884,1.884,1.884,1.884,1.881,1.881,1.88,1.877,1.873,1.87,1.867,1.865,1.863,1.863,1.863,1.863,1.865,1.867,1.868,1.871,1.872,1.876,1.878,1.881,1.881,1.881,1.881,1.883,1.883,1.881,1.881,1.881,1.88,1.877,1.877,1.877,1.876,1.875,1.875,1.876,1.877,1.877,1.877,1.877,1.875,1.875,1.875,1.875,1.874,1.874,1.874,1.874,1.874,1.874,1.874,1.872,1.872,1.872,1.872,1.872,1.872,1.871,1.87,1.871,1.87,1.87,1.87,1.87,1.87,1.869,1.868,1.87,1.87,1.87,1.868,1.868,1.868,1.868,1.868,1.868,1.868,1.868,1.868,1.867,1.867,1.867,1.865,1.865,1.863,1.863,1.863,1.861,1.86,1.86,1.856,1.854,1.852,1.85,1.849,1.847,1.846,1.844,1.844,1.844,1.842,1.84,1.839,1.84,1.842,1.841,1.84,1.84,1.837,1.834,1.832,1.83,1.83,1.828,1.828,1.827,1.827,1.827,1.827,1.827,1.827,1.828,1.827,1.826,1.825,1.821,1.818,1.816,1.814,1.81,1.807,1.806,1.804,1.801,1.8,1.798,1.798,1.795,1.794,1.793,1.793,1.79,1.788,1.787,1.785,1.783,1.781,1.778,1.774,1.772,1.7705,1.766,1.761,1.756,1.749,1.743,1.739,1.732,1.729,1.724,1.72,1.715,1.71,1.703,1.695,1.688,1.682,1.675,1.668,1.663,1.659,1.654,1.651,1.648,1.645,1.639,1.633,1.631,1.628,1.625,1.624,1.62,1.619,1.616,1.614,1.612,1.612,1.61,1.608,1.606,1.606,1.6045,1.604,1.603,1.603,1.603,1.603,1.602,1.602,1.6,1.601,1.602,1.602,1.602,1.6,1.602,1.6,1.6,1.6,1.6,1.6,1.599,1.597,1.596,1.595,1.594,1.591,1.589,1.587,1.583,1.581,1.579,1.579,1.579,1.577,1.576,1.575,1.575,1.575,1.575,1.575,1.576,1.576,1.577,1.576,1.577,1.579,1.578,1.575,1.575,1.575,1.575,1.574,1.576,1.579,1.585,1.597,1.611,1.634,1.658,1.684,1.697,1.713,1.728,1.7295,1.7295,1.7295,1.732,1.732,1.7295,1.7295,1.73,1.717,1.665,1.517,1.265,1.175,1.15,1.142,1.142,1.135,1.132,1.128,1.124
0.9556,0.9478,0.9478,0.9536,0.961,0.9683,0.973,0.9824,0.988,0.9966,1.001,1.006,1.013,1.021,1.028,1.038,1.052,1.06,1.064,1.068,1.077,1.085,1.091,1.096,1.106,1.117,1.122,1.13,1.138,1.145,1.147,1.172,1.218,1.322,1.457,1.551,1.577,1.59,1.604,1.611,1.613,1.619,1.625,1.625,1.631,1.643,1.652,1.659,1.673,1.691,1.709,1.734,1.761,1.781,1.791,1.803,1.808,1.8125,1.816,1.821,1.825,1.829,1.832,1.835,1.839,1.843,1.846,1.848,1.849,1.851,1.854,1.857,1.859,1.863,1.866,1.869,1.869,1.871,1.871,1.871,1.871,1.872,1.872,1.872,1.873,1.875,1.875,1.875,1.875,1.875,1.875,1.873,1.872,1.872,1.871,1.869,1.867,1.866,1.865,1.864,1.864,1.863,1.861,1.861,1.861,1.859,1.859,1.858,1.858,1.859,1.859,1.86,1.858,1.859,1.859,1.86,1.86,1.86,1.86,1.861,1.861,1.862,1.863,1.862,1.863,1.863,1.863,1.863,1.863,1.863,1.863,1.864,1.864,1.865,1.864,1.864,1.865,1.865,1.865,1.867,1.868,1.87,1.87,1.868,1.869,1.87,1.87,1.87,1.869,1.87,1.87,1.869,1.869,1.869,1.869,1.869,1.868,1.866,1.869,1.87,1.87,1.872,1.871,1.871,1.871,1.87,1.868,1.865,1.864,1.862,1.859,1.859,1.8545,1.852,1.851,1.85,1.853,1.852,1.854,1.856,1.857,1.86,1.861,1.864,1.866,1.868,1.868,1.868,1.868,1.869,1.868,1.867,1.867,1.866,1.866,1.864,1.862,1.862,1.859,1.86,1.86,1.863,1.863,1.863,1.863,1.863,1.862,1.86,1.86,1.86,1.859,1.859,1.859,1.859,1.86,1.86,1.86,1.859,1.86,1.86,1.86,1.859,1.859,1.859,1.858,1.858,1.859,1.859,1.859,1.861,1.86,1.859,1.859,1.861,1.86,1.86,1.861,1.861,1.861,1.859,1.859,1.857,1.857,1.857,1.855,1.8545,1.8545,1.853,1.853,1.851,1.851,1.851,1.85,1.849,1.849,1.847,1.845,1.842,1.84,1.839,1.836,1.835,1.832,1.831,1.83,1.829,1.827,1.825,1.824,1.825,1.827,1.827,1.826,1.826,1.824,1.822,1.82,1.82,1.82,1.82,1.818,1.817,1.816,1.816,1.816,1.814,1.814,1.814,1.813,1.812,1.81,1.807,1.806,1.803,1.8,1.797,1.796,1.793,1.792,1.789,1.788,1.787,1.784,1.783,1.78,1.779,1.777,1.776,1.773,1.771,1.771,1.771,1.77,1.768,1.767,1.767,1.766,1.766,1.764,1.761,1.757,1.752,1.748,1.743,1.738,1.733,1.729,1.722,1.715,1.703,1.689,1.681,1.674,1.664,1.657,1.653,1.651,1.647,1.645,1.642,1.639,1.632,1.627,1.623,1.62,1.619,1.616,1.613,1.611,1.609,1.608,1.607,1.605,1.6045,1.604,1.601,1.599,1.597,1.596,1.596,1.595,1.595,1.594,1.593,1.593,1.592,1.594,1.595,1.595,1.594,1.595,1.594,1.593,1.593,1.593,1.594,1.594,1.592,1.59,1.589,1.589,1.587,1.586,1.583,1.58,1.578,1.575,1.575,1.574,1.575,1.574,1.573,1.572,1.57,1.569,1.57,1.57,1.571,1.572,1.572,1.571,1.572,1.574,1.573,1.57,1.57,1.57,1.569,1.571,1.572,1.577,1.583,1.596,1.612,1.638,1.667,1.687,1.696,1.709,1.719,1.72,1.719,1.72,1.722,1.722,1.717,1.714,1.715,1.703,1.652,1.504,1.258,1.176,1.152,1.144,1.147,1.139,1.138,1.131,1.126
0.9536,0.9478,0.946,0.9517,0.9595,0.969,0.9746,0.9834,0.9893,0.9956,0.999,1.007,1.014,1.021,1.03,1.041,1.053,1.062,1.065,1.066,1.074,1.083,1.088,1.093,1.103,1.113,1.118,1.127,1.137,1.143,1.147,1.168,1.21,1.304,1.433,1.545,1.574,1.59,1.6045,1.611,1.616,1.619,1.626,1.625,1.631,1.642,1.65,1.656,1.67,1.686,1.703,1.729,1.757,1.777,1.79,1.799,1.804,1.811,1.814,1.818,1.821,1.825,1.827,1.832,1.834,1.838,1.843,1.844,1.844,1.846,1.849,1.851,1.854,1.856,1.86,1.861,1.863,1.863,1.863,1.863,1.863,1.863,1.863,1.863,1.866,1.867,1.868,1.868,1.867,1.867,1.867,1.864,1.863,1.863,1.863,1.861,1.86,1.86,1.858,1.858,1.855,1.855,1.854,1.854,1.852,1.852,1.852,1.852,1.85,1.852,1.852,1.852,1.852,1.852,1.852,1.853,1.854,1.854,1.854,1.855,1.854,1.854,1.854,1.854,1.8545,1.854,1.855,1.855,1.855,1.856,1.856,1.858,1.858,1.858,1.856,1.858,1.858,1.858,1.858,1.859,1.86,1.86,1.86,1.86,1.86,1.86,1.86,1.86,1.862,1.863,1.863,1.862,1.862,1.862,1.863,1.862,1.863,1.863,1.863,1.863,1.862,1.863,1.863,1.861,1.86,1.858,1.856,1.854,1.852,1.85,1.848,1.845,1.844,1.842,1.842,1.844,1.844,1.846,1.849,1.851,1.852,1.853,1.855,1.855,1.856,1.858,1.858,1.858,1.858,1.858,1.858,1.858,1.858,1.858,1.858,1.856,1.856,1.855,1.855,1.855,1.855,1.855,1.855,1.855,1.856,1.855,1.855,1.853,1.852,1.852,1.852,1.852,1.852,1.852,1.852,1.852,1.852,1.852,1.852,1.852,1.852,1.852,1.852,1.851,1.85,1.85,1.85,1.851,1.852,1.852,1.852,1.852,1.852,1.852,1.853,1.854,1.852,1.852,1.852,1.852,1.85,1.85,1.85,1.85,1.849,1.847,1.847,1.846,1.844,1.844,1.842,1.842,1.842,1.84,1.839,1.837,1.835,1.833,1.831,1.828,1.826,1.825,1.823,1.822,1.82,1.818,1.817,1.815,1.814,1.816,1.818,1.818,1.817,1.817,1.816,1.814,1.813,1.8125,1.81,1.81,1.809,1.806,1.806,1.806,1.806,1.806,1.806,1.806,1.803,1.802,1.801,1.799,1.797,1.795,1.794,1.79,1.788,1.785,1.783,1.781,1.781,1.777,1.775,1.773,1.772,1.7705,1.7705,1.769,1.769,1.769,1.767,1.767,1.766,1.765,1.763,1.763,1.763,1.763,1.762,1.76,1.757,1.755,1.755,1.755,1.751,1.747,1.742,1.735,1.727,1.717,1.704,1.687,1.673,1.662,1.655,1.65,1.646,1.642,1.639,1.637,1.634,1.63,1.624,1.621,1.619,1.618,1.615,1.611,1.607,1.606,1.604,1.602,1.602,1.599,1.598,1.596,1.594,1.594,1.591,1.591,1.59,1.59,1.59,1.589,1.589,1.588,1.59,1.591,1.589,1.59,1.59,1.59,1.589,1.589,1.589,1.589,1.589,1.589,1.585,1.584,1.583,1.582,1.58,1.579,1.577,1.576,1.575,1.574,1.574,1.574,1.572,1.571,1.571,1.57,1.57,1.569,1.569,1.569,1.569,1.569,1.569,1.568,1.569,1.57,1.57,1.57,1.57,1.57,1.569,1.571,1.575,1.584,1.6,1.622,1.649,1.674,1.688,1.695,1.703,1.712,1.712,1.71,1.711,1.712,1.711,1.706,1.702,1.704,1.692,1.641,1.495,1.257,1.176,1.152,1.144,1.146,1.139,1.137,1.13,1.129
0.9517,0.948,0.946,0.951,0.9604,0.9717,0.979,0.988,0.9927,0.999,1.004,1.011,1.019,1.029,1.036,1.048,1.06,1.068,1.072,1.075,1.083,1.091,1.096,1.103,1.114,1.122,1.129,1.134,1.139,1.147,1.152,1.172,1.208,1.293,1.423,1.544,1.578,1.592,1.605,1.614,1.62,1.628,1.634,1.633,1.638,1.648,1.657,1.663,1.673,1.688,1.703,1.734,1.76,1.781,1.795,1.803,1.808,1.8125,1.815,1.817,1.82,1.822,1.826,1.827,1.831,1.833,1.838,1.839,1.841,1.841,1.844,1.846,1.849,1.85,1.854,1.8545,1.855,1.856,1.858,1.8545,1.855,1.856,1.856,1.856,1.858,1.861,1.861,1.861,1.861,1.86,1.86,1.859,1.859,1.859,1.859,1.857,1.856,1.855,1.855,1.855,1.855,1.855,1.854,1.852,1.852,1.851,1.851,1.851,1.851,1.851,1.853,1.852,1.852,1.851,1.851,1.854,1.854,1.855,1.8545,1.8545,1.854,1.854,1.8545,1.8545,1.8545,1.856,1.856,1.857,1.857,1.858,1.858,1.859,1.858,1.859,1.857,1.856,1.856,1.857,1.857,1.857,1.857,1.858,1.858,1.857,1.857,1.857,1.857,1.858,1.859,1.859,1.859,1.859,1.86,1.86,1.862,1.862,1.86,1.861,1.86,1.86,1.857,1.857,1.857,1.8545,1.854,1.849,1.847,1.845,1.842,1.842,1.84,1.84,1.838,1.838,1.839,1.841,1.845,1.846,1.85,1.851,1.853,1.854,1.854,1.853,1.8545,1.855,1.855,1.855,1.857,1.858,1.858,1.858,1.858,1.858,1.858,1.858,1.858,1.858,1.857,1.857,1.858,1.858,1.858,1.857,1.857,1.857,1.856,1.856,1.855,1.855,1.853,1.854,1.8545,1.8545,1.8545,1.853,1.852,1.852,1.852,1.852,1.852,1.853,1.85,1.85,1.851,1.851,1.851,1.85,1.85,1.851,1.852,1.851,1.85,1.85,1.851,1.851,1.85,1.849,1.849,1.849,1.849,1.848,1.848,1.846,1.846,1.844,1.844,1.844,1.843,1.841,1.839,1.839,1.837,1.836,1.833,1.832,1.83,1.827,1.825,1.822,1.82,1.817,1.816,1.815,1.814,1.813,1.8125,1.81,1.81,1.8125,1.815,1.815,1.814,1.814,1.815,1.8125,1.811,1.812,1.812,1.812,1.812,1.81,1.809,1.809,1.809,1.808,1.808,1.808,1.805,1.804,1.802,1.8,1.799,1.798,1.796,1.792,1.79,1.787,1.785,1.784,1.781,1.78,1.777,1.777,1.774,1.773,1.773,1.774,1.773,1.773,1.773,1.7705,1.7705,1.769,1.766,1.764,1.762,1.761,1.761,1.76,1.757,1.756,1.756,1.757,1.756,1.757,1.756,1.75,1.745,1.738,1.7295,1.719,1.703,1.684,1.668,1.655,1.65,1.644,1.64,1.635,1.633,1.627,1.622,1.62,1.617,1.614,1.611,1.606,1.604,1.601,1.597,1.595,1.592,1.592,1.592,1.591,1.59,1.589,1.589,1.588,1.588,1.589,1.588,1.587,1.585,1.585,1.587,1.587,1.587,1.587,1.587,1.587,1.585,1.585,1.585,1.586,1.585,1.582,1.58,1.579,1.579,1.578,1.577,1.575,1.574,1.573,1.571,1.57,1.57,1.57,1.568,1.567,1.566,1.566,1.564,1.565,1.564,1.564,1.565,1.564,1.565,1.564,1.564,1.566,1.565,1.565,1.567,1.567,1.567,1.566,1.572,1.585,1.6045,1.628,1.658,1.675,1.686,1.692,1.7,1.707,1.708,1.706,1.706,1.708,1.708,1.702,1.7,1.699,1.688,1.636,1.49,1.261,1.181,1.156,1.148,1.148,1.141,1.141,1.132,1.135
0.9478,0.9453,0.949,0.954,0.964,0.976,0.9824,0.9927,0.998,1.006,1.012,1.0205,1.03,1.041,1.049,1.057,1.067,1.076,1.083,1.086,1.094,1.103,1.107,1.113,1.126,1.133,1.135,1.139,1.141,1.146,1.155,1.173,1.206,1.286,1.415,1.541,1.583,1.596,1.611,1.616,1.62,1.628,1.638,1.639,1.643,1.653,1.66,1.668,1.68,1.695,1.71,1.737,1.764,1.787,1.799,1.809,1.811,1.815,1.817,1.818,1.819,1.822,1.824,1.827,1.829,1.832,1.834,1.835,1.835,1.835,1.839,1.841,1.842,1.845,1.847,1.847,1.849,1.85,1.851,1.849,1.848,1.849,1.849,1.849,1.85,1.852,1.853,1.854,1.854,1.854,1.855,1.8545,1.854,1.854,1.854,1.853,1.852,1.852,1.852,1.852,1.853,1.85,1.85,1.85,1.848,1.847,1.847,1.847,1.847,1.847,1.848,1.85,1.847,1.849,1.849,1.85,1.85,1.85,1.85,1.851,1.851,1.85,1.852,1.852,1.852,1.854,1.854,1.854,1.8545,1.855,1.855,1.855,1.855,1.8545,1.854,1.853,1.852,1.852,1.852,1.852,1.852,1.852,1.852,1.852,1.853,1.85,1.85,1.85,1.853,1.852,1.853,1.854,1.8545,1.855,1.855,1.855,1.855,1.855,1.855,1.853,1.851,1.849,1.848,1.844,1.841,1.839,1.836,1.833,1.833,1.832,1.83,1.83,1.833,1.832,1.834,1.838,1.843,1.844,1.845,1.848,1.85,1.85,1.85,1.85,1.85,1.85,1.85,1.85,1.85,1.85,1.85,1.85,1.85,1.852,1.852,1.852,1.852,1.852,1.852,1.852,1.852,1.852,1.852,1.851,1.85,1.85,1.848,1.847,1.847,1.847,1.847,1.847,1.849,1.849,1.849,1.849,1.847,1.847,1.847,1.847,1.847,1.848,1.845,1.844,1.844,1.844,1.844,1.844,1.844,1.844,1.844,1.844,1.842,1.842,1.842,1.842,1.843,1.84,1.84,1.84,1.84,1.839,1.839,1.84,1.837,1.835,1.833,1.834,1.833,1.83,1.828,1.825,1.824,1.822,1.821,1.818,1.818,1.814,1.814,1.812,1.811,1.807,1.806,1.804,1.806,1.804,1.803,1.802,1.804,1.806,1.81,1.81,1.81,1.81,1.809,1.806,1.806,1.809,1.808,1.808,1.809,1.806,1.806,1.806,1.806,1.806,1.806,1.807,1.805,1.802,1.801,1.799,1.798,1.795,1.794,1.79,1.79,1.787,1.785,1.784,1.783,1.782,1.782,1.781,1.778,1.777,1.777,1.775,1.774,1.774,1.773,1.771,1.7705,1.768,1.766,1.763,1.761,1.76,1.758,1.758,1.756,1.755,1.756,1.757,1.758,1.76,1.76,1.758,1.756,1.754,1.751,1.743,1.73,1.715,1.699,1.684,1.662,1.652,1.644,1.639,1.633,1.625,1.619,1.615,1.612,1.607,1.6045,1.6,1.598,1.595,1.592,1.59,1.589,1.587,1.585,1.584,1.583,1.583,1.583,1.582,1.581,1.582,1.582,1.58,1.579,1.579,1.58,1.581,1.581,1.579,1.579,1.578,1.578,1.576,1.576,1.576,1.575,1.574,1.57,1.57,1.569,1.567,1.565,1.563,1.563,1.56,1.559,1.558,1.557,1.557,1.554,1.554,1.552,1.552,1.551,1.551,1.551,1.551,1.551,1.552,1.549,1.549,1.551,1.553,1.552,1.551,1.552,1.552,1.552,1.558,1.568,1.585,1.607,1.632,1.654,1.668,1.677,1.682,1.6875,1.695,1.697,1.696,1.697,1.701,1.7,1.698,1.696,1.696,1.685,1.631,1.484,1.261,1.185,1.16,1.15,1.15,1.139,1.1455,1.136,1.139
0.944,0.9414,0.9473,0.9575,0.967,0.9766,0.984,0.9946,1.001,1.008,1.015,1.024,1.034,1.045,1.054,1.062,1.07,1.077,1.082,1.085,1.094,1.1,1.105,1.111,1.125,1.131,1.132,1.134,1.135,1.14,1.148,1.165,1.194,1.2705,1.399,1.529,1.576,1.591,1.606,1.613,1.616,1.622,1.632,1.632,1.639,1.647,1.656,1.661,1.673,1.688,1.704,1.7295,1.757,1.778,1.798,1.806,1.81,1.809,1.81,1.8125,1.813,1.815,1.818,1.822,1.825,1.827,1.829,1.831,1.828,1.83,1.832,1.835,1.837,1.838,1.841,1.84,1.842,1.843,1.843,1.843,1.843,1.843,1.843,1.844,1.845,1.847,1.848,1.848,1.848,1.848,1.848,1.848,1.848,1.848,1.848,1.848,1.846,1.847,1.846,1.846,1.846,1.846,1.846,1.844,1.843,1.843,1.843,1.843,1.843,1.843,1.843,1.843,1.843,1.843,1.843,1.845,1.846,1.845,1.845,1.845,1.846,1.846,1.845,1.845,1.846,1.847,1.848,1.848,1.848,1.848,1.848,1.848,1.848,1.849,1.847,1.846,1.847,1.847,1.846,1.845,1.845,1.846,1.845,1.845,1.845,1.845,1.846,1.846,1.845,1.845,1.846,1.846,1.847,1.847,1.847,1.847,1.846,1.845,1.844,1.841,1.838,1.835,1.834,1.83,1.827,1.826,1.824,1.824,1.822,1.822,1.823,1.826,1.826,1.828,1.831,1.834,1.84,1.842,1.843,1.843,1.846,1.846,1.846,1.846,1.846,1.846,1.844,1.843,1.843,1.843,1.843,1.843,1.843,1.843,1.845,1.845,1.845,1.845,1.844,1.843,1.844,1.844,1.843,1.842,1.842,1.841,1.84,1.839,1.839,1.84,1.839,1.84,1.839,1.84,1.841,1.839,1.84,1.84,1.84,1.838,1.837,1.837,1.836,1.836,1.836,1.836,1.836,1.836,1.835,1.836,1.835,1.834,1.833,1.832,1.833,1.833,1.832,1.833,1.833,1.833,1.831,1.831,1.831,1.83,1.828,1.828,1.826,1.825,1.824,1.822,1.82,1.818,1.816,1.815,1.813,1.813,1.811,1.809,1.808,1.806,1.803,1.8,1.798,1.797,1.796,1.797,1.796,1.795,1.796,1.798,1.801,1.801,1.801,1.801,1.8,1.799,1.798,1.799,1.799,1.798,1.798,1.798,1.796,1.797,1.795,1.796,1.795,1.795,1.792,1.791,1.789,1.787,1.787,1.786,1.783,1.781,1.779,1.777,1.775,1.775,1.775,1.775,1.772,1.772,1.771,1.7705,1.769,1.769,1.767,1.765,1.765,1.763,1.761,1.759,1.756,1.754,1.753,1.75,1.748,1.748,1.747,1.745,1.746,1.747,1.748,1.752,1.752,1.753,1.753,1.751,1.75,1.748,1.741,1.728,1.715,1.706,1.692,1.671,1.654,1.644,1.636,1.627,1.622,1.616,1.613,1.609,1.605,1.601,1.599,1.597,1.594,1.591,1.59,1.585,1.584,1.581,1.58,1.579,1.578,1.578,1.576,1.579,1.578,1.575,1.575,1.575,1.575,1.575,1.575,1.574,1.574,1.573,1.571,1.571,1.57,1.569,1.569,1.567,1.566,1.564,1.564,1.5625,1.56,1.559,1.558,1.555,1.553,1.552,1.552,1.551,1.55,1.548,1.548,1.547,1.546,1.546,1.546,1.546,1.546,1.546,1.546,1.547,1.547,1.547,1.547,1.546,1.546,1.548,1.55,1.559,1.571,1.592,1.613,1.637,1.654,1.667,1.671,1.672,1.678,1.684,1.687,1.687,1.689,1.691,1.689,1.6875,1.686,1.686,1.675,1.617,1.466,1.26,1.186,1.162,1.153,1.147,1.143,1.151,1.143,1.146
