3.52,3.54,3.576,3.654,3.691,3.713,3.715,3.717,3.734,3.746,3.748,3.742,3.742,3.748,3.756,3.756,3.752,3.748,3.746,3.74,3.736,3.732,3.729,3.727,3.725,3.732,3.736,3.742,3.748,3.742,3.738,3.723,3.705,3.678,3.621,3.53,3.406,3.252,3.148,3.08,3.05,3.027,3.023,3.021,3.021,3.021,3.023,3.027,3.033,3.041,3.049,3.055,3.064,3.066,3.07,3.074,3.082,3.09,3.096,3.102,3.107,3.11,3.113,3.121,3.129,3.135,3.14,3.146,3.154,3.158,3.162,3.168,3.176,3.178,3.182,3.186,3.193,3.2,3.203,3.205,3.213,3.215,3.22,3.229,3.236,3.238,3.24,3.248,3.252,3.26,3.266,3.271,3.273,3.281,3.29,3.299,3.307,3.312,3.318,3.326,3.332,3.34,3.344,3.35,3.36,3.365,3.37,3.371,3.377,3.377,3.383,3.389,3.393,3.398,3.406,3.412,3.416,3.422,3.424,3.426,3.428,3.428,3.434,3.441,3.445,3.45,3.465,3.475,3.486,3.488,3.49,3.492,3.5,3.518,3.52,3.512,3.508,3.508,3.512,3.52,3.512,3.512,3.514,3.54,3.627,3.77,4.066,4.496,5.04,5.527,5.9,6.254,6.56,6.832,7.047,7.227,7.266,7.258,7.258,7.258,7.258,7.258,7.258,7.258,7.258,7.258,7.258,7.258,7.258,7.258,7.258,7.258,7.258,7.258,7.258,7.258,7.258,7.258,7.258,7.258,7.258,7.258,7.258,7.258,7.258,7.258,7.258,7.258,7.258,7.258,7.258,7.277,7.13,6.625,6.195,5.973,5.934,6.03,6.242,6.49,6.58,6.59,6.605,6.605,6.598,6.57,6.55,6.508,6.46,6.414,6.34,6.246,6.074,5.78,5.387,5.01,4.734,4.52,4.336,4.125,3.906,3.754,3.62,3.523,3.475,3.445,3.432,3.418,3.406,3.408,3.414,3.418,3.418,3.412,3.406,3.398,3.396,3.396,3.396,3.389,3.39,3.383,3.375,3.37,3.355,3.338,3.324,3.305,3.285,3.26,3.236,3.213,3.197,3.176,3.15,3.129,3.105,3.08,3.06,3.04,3.023,3.008,2.99,2.97,2.95,2.932,2.914,2.896,2.879,2.857,2.838,2.82,2.803,2.781,2.754,2.719,2.684,2.645,2.605,2.566,2.533,2.504,2.492,2.49,2.494,2.496,2.496,2.492,2.49,2.484,2.477,2.469,2.46,2.451,2.441,2.434,2.426,2.42,2.414,2.41,2.406,2.402,2.4,2.4,2.398,2.395,2.389,2.383,2.379,2.375,2.377,2.38,2.393,2.406,2.428,2.453,2.47,2.482,2.492,2.498,2.5,2.504,2.502,2.502,2.506,2.506,2.506,2.508,2.514,2.514,2.514,2.514,2.514,2.516,2.516,2.518,2.52,2.525,2.53,2.533,2.535,2.531,2.531,2.535,2.537,2.541,2.545,2.547,2.547,2.547,2.547,2.549,2.55,2.549,2.55,2.559,2.562,2.564,2.564,2.562,2.57,2.578,2.586,2.592,2.598,2.61,2.615,2.62,2.621,2.625,2.627,2.633,2.64,2.648,2.65,2.65,2.65,2.658,2.66,2.654,2.656,2.666,2.672,2.674,2.68,2.69,2.697,2.705,2.71,2.715,2.72,2.723,2.727,2.727,2.732,2.738,2.746,2.75,2.748,2.746,2.74,2.742,2.742,2.734,2.73,2.73,2.738,2.744,2.748,2.748,2.746,2.742,2.736,2.748,2.752,2.748,2.742,2.74,2.732,2.723,2.71,2.705,2.697,2.68,2.635,2.55,2.398,2.055,1.642,1.385,1.305,1.282,1.261,1.249,1.237,1.226,1.225,1.229,1.233,1.249
3.506,3.527,3.564,3.658,3.7,3.723,3.723,3.727,3.742,3.754,3.758,3.75,3.75,3.768,3.77,3.766,3.764,3.764,3.764,3.754,3.75,3.748,3.748,3.748,3.748,3.756,3.76,3.768,3.785,3.781,3.764,3.744,3.727,3.697,3.646,3.553,3.43,3.283,3.162,3.09,3.055,3.031,3.027,3.025,3.021,3.023,3.025,3.03,3.037,3.043,3.049,3.059,3.064,3.07,3.07,3.074,3.084,3.092,3.096,3.102,3.107,3.113,3.117,3.123,3.129,3.139,3.14,3.148,3.158,3.162,3.168,3.168,3.174,3.18,3.184,3.191,3.195,3.201,3.205,3.205,3.213,3.217,3.223,3.229,3.234,3.24,3.242,3.25,3.254,3.26,3.264,3.271,3.277,3.283,3.29,3.299,3.307,3.314,3.318,3.326,3.334,3.34,3.348,3.355,3.363,3.37,3.37,3.375,3.38,3.383,3.385,3.393,3.396,3.4,3.406,3.414,3.42,3.422,3.426,3.43,3.43,3.43,3.436,3.443,3.447,3.451,3.467,3.48,3.488,3.488,3.49,3.492,3.5,3.518,3.52,3.512,3.508,3.508,3.512,3.52,3.52,3.514,3.516,3.533,3.582,3.73,3.943,4.41,4.96,5.527,5.94,6.312,6.61,6.895,7.13,7.273,7.258,7.258,7.258,7.258,7.258,7.258,7.258,7.258,7.258,7.258,7.258,7.258,7.258,7.258,7.258,7.258,7.258,7.258,7.258,7.258,7.258,7.258,7.258,7.258,7.258,7.258,7.258,7.258,7.258,7.258,7.258,7.258,7.258,7.258,7.258,7.277,7.125,6.613,6.168,5.934,5.887,5.973,6.168,6.43,6.547,6.57,6.582,6.582,6.58,6.555,6.53,6.484,6.43,6.387,6.316,6.22,6.055,5.777,5.395,5.027,4.74,4.52,4.332,4.125,3.92,3.777,3.643,3.541,3.488,3.46,3.443,3.426,3.416,3.414,3.418,3.424,3.422,3.414,3.406,3.402,3.398,3.396,3.396,3.395,3.39,3.385,3.379,3.371,3.357,3.342,3.324,3.305,3.283,3.26,3.236,3.217,3.2,3.176,3.154,3.129,3.105,3.082,3.06,3.04,3.023,3.008,2.99,2.975,2.953,2.932,2.916,2.896,2.88,2.861,2.84,2.822,2.803,2.781,2.752,2.723,2.686,2.646,2.605,2.566,2.535,2.508,2.496,2.494,2.5,2.5,2.5,2.498,2.492,2.486,2.479,2.469,2.463,2.453,2.445,2.436,2.428,2.42,2.412,2.412,2.406,2.402,2.4,2.4,2.4,2.395,2.39,2.385,2.383,2.379,2.38,2.385,2.396,2.41,2.434,2.459,2.479,2.49,2.498,2.5,2.504,2.506,2.506,2.504,2.504,2.506,2.506,2.508,2.514,2.514,2.516,2.514,2.516,2.518,2.52,2.52,2.521,2.53,2.533,2.537,2.537,2.535,2.535,2.537,2.543,2.547,2.547,2.55,2.55,2.547,2.549,2.55,2.55,2.55,2.553,2.559,2.562,2.564,2.564,2.56,2.57,2.578,2.584,2.588,2.594,2.604,2.611,2.617,2.621,2.623,2.623,2.633,2.643,2.646,2.65,2.65,2.65,2.658,2.664,2.656,2.66,2.666,2.672,2.676,2.68,2.688,2.697,2.705,2.71,2.715,2.72,2.727,2.727,2.732,2.736,2.74,2.75,2.756,2.752,2.748,2.742,2.744,2.746,2.738,2.734,2.734,2.742,2.748,2.748,2.75,2.75,2.746,2.74,2.75,2.756,2.748,2.742,2.74,2.732,2.725,2.713,2.705,2.697,2.678,2.633,2.547,2.387,2.035,1.621,1.375,1.303,1.28,1.257,1.247,1.235,1.223,1.222,1.227,1.231,1.248
3.492,3.514,3.557,3.656,3.703,3.73,3.73,3.734,3.752,3.766,3.764,3.76,3.76,3.775,3.781,3.78,3.777,3.777,3.771,3.771,3.768,3.768,3.768,3.773,3.773,3.78,3.797,3.816,3.818,3.805,3.787,3.771,3.748,3.717,3.664,3.572,3.447,3.303,3.174,3.102,3.06,3.037,3.03,3.027,3.023,3.023,3.025,3.03,3.037,3.043,3.049,3.059,3.064,3.07,3.07,3.074,3.084,3.092,3.096,3.102,3.107,3.113,3.12,3.123,3.13,3.139,3.143,3.148,3.158,3.162,3.168,3.17,3.178,3.18,3.188,3.191,3.197,3.203,3.205,3.207,3.213,3.217,3.223,3.23,3.236,3.24,3.248,3.252,3.256,3.26,3.266,3.271,3.28,3.283,3.291,3.3,3.309,3.314,3.32,3.332,3.34,3.344,3.35,3.357,3.367,3.37,3.371,3.377,3.385,3.385,3.393,3.396,3.398,3.406,3.412,3.416,3.42,3.426,3.432,3.43,3.434,3.436,3.44,3.45,3.45,3.455,3.47,3.482,3.488,3.492,3.488,3.492,3.5,3.514,3.52,3.512,3.508,3.508,3.508,3.512,3.516,3.514,3.514,3.525,3.562,3.67,3.887,4.312,4.9,5.523,5.973,6.355,6.67,6.96,7.203,7.27,7.258,7.258,7.258,7.258,7.258,7.258,7.258,7.258,7.258,7.258,7.258,7.258,7.258,7.258,7.258,7.258,7.258,7.258,7.258,7.258,7.258,7.258,7.258,7.258,7.258,7.258,7.258,7.258,7.258,7.258,7.258,7.258,7.258,7.258,7.258,7.277,7.125,6.605,6.137,5.887,5.83,5.91,6.098,6.37,6.527,6.562,6.574,6.574,6.574,6.55,6.523,6.484,6.42,6.375,6.297,6.2,6.04,5.773,5.4,5.035,4.74,4.51,4.316,4.125,3.932,3.8,3.666,3.559,3.504,3.469,3.453,3.432,3.422,3.42,3.424,3.424,3.424,3.418,3.412,3.404,3.402,3.398,3.398,3.395,3.39,3.389,3.38,3.371,3.357,3.342,3.324,3.307,3.285,3.262,3.24,3.217,3.2,3.176,3.154,3.133,3.105,3.086,3.059,3.04,3.027,3.01,2.994,2.975,2.953,2.938,2.922,2.902,2.883,2.863,2.842,2.822,2.803,2.781,2.754,2.723,2.688,2.648,2.605,2.566,2.535,2.508,2.498,2.498,2.5,2.5,2.5,2.5,2.494,2.49,2.48,2.473,2.463,2.455,2.447,2.438,2.428,2.422,2.418,2.412,2.41,2.406,2.404,2.404,2.4,2.398,2.393,2.389,2.387,2.383,2.38,2.387,2.4,2.416,2.441,2.465,2.484,2.494,2.502,2.506,2.508,2.508,2.506,2.506,2.506,2.506,2.508,2.512,2.516,2.516,2.516,2.516,2.516,2.518,2.521,2.521,2.527,2.533,2.54,2.541,2.541,2.537,2.541,2.545,2.545,2.549,2.55,2.55,2.55,2.55,2.553,2.553,2.553,2.553,2.557,2.56,2.564,2.566,2.564,2.566,2.57,2.578,2.584,2.588,2.594,2.604,2.613,2.615,2.621,2.623,2.627,2.635,2.643,2.65,2.65,2.65,2.654,2.662,2.664,2.66,2.662,2.67,2.674,2.676,2.68,2.686,2.697,2.705,2.713,2.719,2.723,2.727,2.732,2.734,2.74,2.744,2.754,2.758,2.756,2.75,2.746,2.748,2.746,2.74,2.736,2.738,2.744,2.748,2.748,2.752,2.752,2.748,2.746,2.752,2.76,2.748,2.746,2.74,2.732,2.725,2.715,2.709,2.697,2.676,2.63,2.547,2.379,2.014,1.604,1.364,1.301,1.277,1.256,1.245,1.232,1.221,1.221,1.225,1.2295,1.247
3.48,3.502,3.545,3.652,3.707,3.736,3.736,3.74,3.758,3.771,3.77,3.764,3.768,3.78,3.783,3.785,3.787,3.781,3.781,3.781,3.781,3.783,3.783,3.783,3.787,3.812,3.83,3.83,3.834,3.824,3.803,3.787,3.762,3.725,3.67,3.588,3.46,3.324,3.186,3.11,3.06,3.037,3.03,3.025,3.02,3.021,3.025,3.03,3.035,3.043,3.049,3.059,3.064,3.068,3.068,3.074,3.084,3.09,3.094,3.102,3.107,3.113,3.117,3.123,3.13,3.139,3.143,3.148,3.156,3.162,3.166,3.17,3.178,3.182,3.186,3.191,3.197,3.203,3.207,3.21,3.215,3.219,3.227,3.234,3.24,3.24,3.248,3.252,3.26,3.264,3.27,3.273,3.281,3.285,3.293,3.305,3.314,3.318,3.32,3.332,3.338,3.344,3.35,3.36,3.37,3.37,3.375,3.383,3.385,3.389,3.39,3.396,3.4,3.406,3.412,3.42,3.424,3.426,3.432,3.434,3.436,3.436,3.441,3.45,3.453,3.459,3.473,3.486,3.49,3.492,3.488,3.492,3.5,3.512,3.516,3.512,3.51,3.508,3.514,3.516,3.514,3.518,3.518,3.523,3.553,3.635,3.834,4.227,4.844,5.516,5.992,6.387,6.715,7.023,7.28,7.258,7.258,7.258,7.258,7.258,7.258,7.258,7.258,7.258,7.258,7.258,7.258,7.258,7.258,7.258,7.258,7.258,7.258,7.258,7.258,7.258,7.258,7.258,7.258,7.258,7.258,7.258,7.258,7.258,7.258,7.258,7.258,7.258,7.258,7.258,7.258,7.277,7.13,6.56,6.07,5.82,5.76,5.84,6.016,6.3,6.516,6.562,6.574,6.58,6.58,6.555,6.53,6.484,6.426,6.37,6.29,6.184,6.023,5.76,5.39,5.035,4.734,4.508,4.312,4.125,3.94,3.818,3.691,3.576,3.512,3.479,3.459,3.438,3.424,3.422,3.428,3.43,3.428,3.418,3.412,3.406,3.402,3.402,3.398,3.396,3.395,3.389,3.38,3.371,3.361,3.344,3.326,3.307,3.287,3.264,3.24,3.219,3.2,3.18,3.154,3.13,3.11,3.086,3.062,3.043,3.025,3.012,2.996,2.975,2.955,2.94,2.92,2.9,2.883,2.865,2.842,2.824,2.803,2.781,2.756,2.723,2.691,2.648,2.605,2.566,2.535,2.51,2.498,2.5,2.504,2.504,2.506,2.5,2.498,2.492,2.482,2.473,2.467,2.455,2.45,2.441,2.434,2.424,2.416,2.412,2.41,2.404,2.404,2.402,2.4,2.4,2.393,2.389,2.385,2.385,2.385,2.39,2.4,2.416,2.445,2.469,2.486,2.5,2.506,2.51,2.516,2.514,2.512,2.512,2.506,2.508,2.512,2.512,2.516,2.518,2.518,2.518,2.52,2.521,2.525,2.531,2.533,2.537,2.545,2.547,2.547,2.545,2.547,2.549,2.549,2.553,2.555,2.559,2.555,2.555,2.557,2.559,2.559,2.559,2.559,2.562,2.566,2.568,2.568,2.566,2.572,2.578,2.584,2.588,2.594,2.607,2.617,2.621,2.621,2.623,2.629,2.635,2.645,2.652,2.654,2.654,2.654,2.664,2.668,2.662,2.664,2.674,2.674,2.674,2.68,2.684,2.695,2.705,2.713,2.719,2.723,2.729,2.732,2.736,2.74,2.746,2.756,2.76,2.76,2.754,2.748,2.75,2.75,2.742,2.738,2.74,2.746,2.75,2.75,2.752,2.754,2.75,2.744,2.756,2.762,2.754,2.746,2.74,2.734,2.727,2.715,2.71,2.697,2.676,2.629,2.543,2.367,1.987,1.588,1.353,1.301,1.275,1.254,1.244,1.231,1.219,1.218,1.223,1.2295,1.247
3.465,3.488,3.535,3.648,3.701,3.734,3.736,3.744,3.764,3.771,3.775,3.768,3.77,3.781,3.79,3.79,3.79,3.787,3.787,3.785,3.783,3.785,3.79,3.793,3.791,3.83,3.836,3.84,3.842,3.836,3.816,3.797,3.771,3.734,3.678,3.592,3.475,3.338,3.19,3.115,3.062,3.035,3.027,3.025,3.018,3.018,3.021,3.025,3.031,3.037,3.047,3.053,3.06,3.062,3.064,3.068,3.076,3.084,3.09,3.098,3.104,3.107,3.113,3.12,3.127,3.135,3.139,3.145,3.152,3.158,3.164,3.17,3.176,3.18,3.188,3.191,3.197,3.203,3.207,3.21,3.215,3.219,3.227,3.234,3.24,3.242,3.25,3.256,3.26,3.264,3.27,3.273,3.281,3.285,3.291,3.3,3.31,3.314,3.32,3.332,3.34,3.344,3.35,3.357,3.365,3.371,3.375,3.38,3.385,3.387,3.39,3.396,3.4,3.406,3.412,3.418,3.422,3.426,3.432,3.436,3.436,3.438,3.443,3.451,3.455,3.46,3.473,3.486,3.494,3.492,3.492,3.494,3.502,3.516,3.521,3.516,3.516,3.516,3.52,3.525,3.525,3.531,3.53,3.527,3.553,3.621,3.799,4.168,4.812,5.5,5.984,6.41,6.758,7.07,7.285,7.258,7.258,7.258,7.258,7.258,7.258,7.258,7.258,7.258,7.258,7.258,7.258,7.258,7.258,7.258,7.258,7.258,7.258,7.258,7.258,7.258,7.258,7.258,7.258,7.258,7.258,7.258,7.258,7.258,7.258,7.258,7.258,7.258,7.258,7.258,7.258,7.28,7.117,6.51,5.996,5.758,5.69,5.78,5.95,6.227,6.48,6.54,6.57,6.566,6.562,6.543,6.516,6.48,6.426,6.367,6.273,6.164,6.004,5.73,5.37,5.03,4.727,4.496,4.31,4.125,3.94,3.824,3.697,3.58,3.514,3.48,3.459,3.438,3.424,3.422,3.426,3.428,3.426,3.418,3.412,3.406,3.406,3.406,3.402,3.4,3.395,3.393,3.385,3.373,3.363,3.348,3.33,3.309,3.287,3.266,3.24,3.22,3.203,3.18,3.156,3.13,3.107,3.084,3.06,3.041,3.025,3.01,2.994,2.975,2.957,2.94,2.92,2.9,2.883,2.865,2.842,2.824,2.803,2.781,2.756,2.719,2.691,2.652,2.605,2.566,2.533,2.514,2.5,2.502,2.506,2.508,2.508,2.504,2.5,2.494,2.486,2.475,2.467,2.46,2.451,2.441,2.434,2.426,2.418,2.412,2.41,2.404,2.402,2.402,2.4,2.398,2.393,2.389,2.385,2.383,2.385,2.39,2.402,2.422,2.45,2.473,2.492,2.502,2.51,2.514,2.516,2.518,2.516,2.516,2.512,2.512,2.516,2.516,2.52,2.52,2.521,2.521,2.521,2.525,2.53,2.531,2.535,2.541,2.547,2.547,2.547,2.547,2.547,2.55,2.553,2.557,2.562,2.562,2.562,2.562,2.56,2.562,2.564,2.564,2.566,2.568,2.572,2.576,2.574,2.572,2.578,2.584,2.59,2.592,2.598,2.615,2.625,2.627,2.627,2.629,2.633,2.637,2.648,2.654,2.658,2.658,2.66,2.668,2.67,2.664,2.666,2.672,2.674,2.674,2.676,2.682,2.693,2.705,2.71,2.717,2.723,2.729,2.732,2.736,2.74,2.744,2.754,2.76,2.76,2.752,2.748,2.752,2.748,2.742,2.738,2.74,2.746,2.75,2.75,2.754,2.756,2.752,2.746,2.758,2.766,2.758,2.748,2.746,2.738,2.729,2.719,2.713,2.7,2.678,2.63,2.545,2.36,1.965,1.573,1.351,1.301,1.276,1.254,1.244,1.231,1.219,1.218,1.222,1.228,1.245
3.455,3.484,3.525,3.637,3.701,3.734,3.736,3.746,3.764,3.775,3.781,3.771,3.771,3.785,3.797,3.797,3.793,3.791,3.791,3.787,3.79,3.791,3.795,3.799,3.797,3.824,3.84,3.844,3.852,3.844,3.826,3.809,3.785,3.746,3.69,3.6,3.488,3.352,3.201,3.123,3.064,3.033,3.025,3.021,3.016,3.014,3.02,3.025,3.027,3.033,3.043,3.05,3.057,3.057,3.06,3.066,3.072,3.078,3.088,3.094,3.098,3.105,3.11,3.115,3.123,3.13,3.137,3.14,3.148,3.156,3.16,3.166,3.172,3.178,3.184,3.191,3.197,3.203,3.207,3.21,3.215,3.219,3.227,3.234,3.24,3.242,3.25,3.256,3.26,3.264,3.27,3.275,3.28,3.285,3.291,3.299,3.309,3.314,3.32,3.33,3.34,3.344,3.35,3.357,3.365,3.371,3.375,3.38,3.385,3.387,3.39,3.396,3.398,3.406,3.412,3.418,3.424,3.428,3.432,3.436,3.436,3.44,3.447,3.455,3.457,3.46,3.477,3.486,3.494,3.494,3.496,3.498,3.504,3.518,3.52,3.52,3.52,3.521,3.527,3.535,3.535,3.541,3.54,3.531,3.55,3.607,3.773,4.145,4.8,5.5,5.984,6.43,6.793,7.117,7.277,7.258,7.258,7.258,7.258,7.258,7.258,7.258,7.258,7.258,7.258,7.258,7.258,7.258,7.258,7.258,7.258,7.258,7.258,7.258,7.258,7.258,7.258,7.258,7.258,7.258,7.258,7.258,7.258,7.258,7.258,7.258,7.258,7.258,7.258,7.258,7.258,7.28,7.105,6.477,5.91,5.688,5.645,5.727,5.887,6.16,6.438,6.5,6.54,6.54,6.54,6.516,6.492,6.465,6.418,6.35,6.26,6.15,5.977,5.7,5.35,5.01,4.72,4.484,4.293,4.113,3.934,3.824,3.701,3.584,3.518,3.48,3.457,3.438,3.426,3.422,3.426,3.43,3.426,3.42,3.412,3.408,3.408,3.408,3.406,3.4,3.396,3.395,3.387,3.377,3.367,3.348,3.334,3.31,3.29,3.266,3.24,3.223,3.205,3.18,3.158,3.133,3.107,3.086,3.062,3.041,3.025,3.012,2.996,2.975,2.957,2.941,2.924,2.902,2.883,2.865,2.842,2.824,2.803,2.781,2.754,2.72,2.691,2.654,2.607,2.566,2.535,2.512,2.504,2.506,2.512,2.514,2.514,2.508,2.504,2.496,2.486,2.479,2.469,2.46,2.453,2.443,2.434,2.428,2.42,2.414,2.41,2.408,2.406,2.404,2.404,2.4,2.396,2.39,2.389,2.383,2.38,2.39,2.402,2.426,2.455,2.479,2.496,2.504,2.51,2.516,2.52,2.52,2.52,2.516,2.516,2.516,2.516,2.518,2.52,2.521,2.521,2.521,2.525,2.53,2.531,2.533,2.537,2.541,2.547,2.547,2.549,2.547,2.549,2.553,2.557,2.56,2.562,2.564,2.564,2.562,2.566,2.568,2.568,2.568,2.572,2.574,2.578,2.58,2.58,2.578,2.582,2.586,2.592,2.596,2.604,2.617,2.627,2.63,2.633,2.635,2.637,2.637,2.65,2.658,2.66,2.662,2.664,2.672,2.674,2.664,2.666,2.672,2.674,2.674,2.674,2.682,2.695,2.705,2.71,2.719,2.723,2.729,2.734,2.736,2.74,2.746,2.754,2.76,2.76,2.752,2.746,2.752,2.748,2.742,2.738,2.74,2.744,2.75,2.75,2.756,2.76,2.756,2.748,2.76,2.768,2.76,2.748,2.746,2.74,2.732,2.723,2.715,2.7,2.68,2.633,2.545,2.354,1.958,1.564,1.348,1.301,1.275,1.254,1.244,1.2295,1.219,1.216,1.22,1.227,1.244
3.455,3.479,3.521,3.635,3.697,3.734,3.736,3.748,3.766,3.783,3.781,3.78,3.78,3.795,3.799,3.799,3.797,3.797,3.797,3.793,3.793,3.795,3.799,3.799,3.799,3.812,3.842,3.846,3.854,3.848,3.836,3.812,3.791,3.752,3.695,3.607,3.496,3.36,3.209,3.127,3.066,3.035,3.025,3.021,3.014,3.014,3.018,3.021,3.025,3.031,3.041,3.045,3.05,3.057,3.057,3.066,3.072,3.076,3.084,3.092,3.096,3.102,3.107,3.115,3.12,3.127,3.135,3.14,3.148,3.152,3.158,3.164,3.172,3.176,3.184,3.191,3.197,3.203,3.207,3.21,3.217,3.223,3.227,3.234,3.24,3.246,3.25,3.258,3.26,3.264,3.27,3.277,3.28,3.285,3.291,3.299,3.309,3.314,3.32,3.33,3.34,3.344,3.35,3.36,3.365,3.371,3.375,3.383,3.385,3.389,3.39,3.398,3.402,3.406,3.412,3.42,3.424,3.432,3.434,3.436,3.438,3.441,3.447,3.455,3.46,3.465,3.479,3.49,3.5,3.5,3.498,3.502,3.51,3.518,3.525,3.52,3.521,3.527,3.54,3.545,3.549,3.549,3.547,3.537,3.547,3.602,3.77,4.152,4.805,5.508,6.004,6.44,6.82,7.168,7.27,7.258,7.258,7.258,7.258,7.258,7.258,7.258,7.258,7.258,7.258,7.258,7.258,7.258,7.258,7.258,7.258,7.258,7.258,7.258,7.258,7.258,7.258,7.258,7.258,7.258,7.258,7.258,7.258,7.258,7.258,7.258,7.258,7.258,7.258,7.258,7.258,7.28,7.09,6.426,5.844,5.617,5.605,5.676,5.83,6.08,6.367,6.473,6.516,6.52,6.51,6.492,6.473,6.445,6.406,6.34,6.246,6.13,5.93,5.652,5.32,4.99,4.703,4.48,4.285,4.1,3.934,3.822,3.701,3.586,3.52,3.48,3.46,3.44,3.426,3.426,3.43,3.43,3.428,3.422,3.418,3.41,3.408,3.408,3.408,3.402,3.398,3.395,3.387,3.379,3.37,3.352,3.336,3.312,3.29,3.266,3.242,3.223,3.203,3.18,3.158,3.135,3.11,3.086,3.064,3.045,3.027,3.012,2.996,2.975,2.959,2.941,2.924,2.904,2.885,2.865,2.844,2.824,2.803,2.78,2.754,2.72,2.693,2.656,2.61,2.566,2.533,2.514,2.504,2.506,2.512,2.516,2.516,2.514,2.508,2.5,2.49,2.479,2.47,2.465,2.457,2.445,2.438,2.432,2.422,2.418,2.412,2.408,2.406,2.406,2.404,2.4,2.398,2.393,2.389,2.385,2.383,2.39,2.402,2.428,2.459,2.482,2.498,2.506,2.514,2.516,2.523,2.523,2.52,2.52,2.516,2.516,2.52,2.52,2.521,2.521,2.521,2.525,2.53,2.53,2.533,2.537,2.541,2.545,2.547,2.549,2.55,2.55,2.553,2.557,2.56,2.564,2.566,2.566,2.566,2.566,2.57,2.57,2.572,2.572,2.576,2.58,2.584,2.586,2.582,2.582,2.586,2.59,2.594,2.6,2.605,2.621,2.627,2.63,2.633,2.635,2.637,2.639,2.652,2.66,2.662,2.662,2.666,2.672,2.674,2.664,2.662,2.67,2.674,2.674,2.676,2.682,2.697,2.705,2.71,2.717,2.723,2.727,2.73,2.734,2.74,2.744,2.754,2.76,2.76,2.752,2.746,2.752,2.75,2.742,2.74,2.742,2.748,2.752,2.752,2.76,2.76,2.758,2.752,2.764,2.768,2.76,2.75,2.746,2.742,2.734,2.725,2.719,2.703,2.682,2.635,2.547,2.357,1.967,1.568,1.344,1.3,1.273,1.253,1.243,1.229,1.217,1.215,1.218,1.226,1.241
3.455,3.477,3.516,3.629,3.695,3.734,3.736,3.742,3.764,3.783,3.787,3.78,3.78,3.795,3.799,3.797,3.793,3.793,3.793,3.793,3.793,3.795,3.799,3.799,3.799,3.803,3.832,3.842,3.848,3.846,3.836,3.816,3.79,3.748,3.691,3.605,3.498,3.361,3.21,3.127,3.064,3.031,3.025,3.016,3.01,3.01,3.012,3.02,3.021,3.027,3.035,3.043,3.049,3.05,3.057,3.06,3.068,3.076,3.082,3.088,3.094,3.098,3.105,3.113,3.12,3.125,3.13,3.137,3.145,3.15,3.154,3.164,3.17,3.176,3.182,3.188,3.197,3.203,3.207,3.21,3.217,3.223,3.227,3.234,3.24,3.246,3.25,3.258,3.262,3.264,3.27,3.277,3.281,3.285,3.293,3.305,3.31,3.314,3.32,3.332,3.338,3.344,3.35,3.36,3.37,3.371,3.375,3.383,3.389,3.39,3.39,3.398,3.404,3.406,3.412,3.42,3.424,3.432,3.436,3.436,3.44,3.445,3.451,3.459,3.46,3.467,3.479,3.492,3.5,3.5,3.5,3.504,3.512,3.521,3.525,3.525,3.525,3.531,3.541,3.549,3.549,3.549,3.545,3.531,3.54,3.59,3.77,4.176,4.82,5.5,5.992,6.438,6.81,7.207,7.266,7.258,7.258,7.258,7.258,7.258,7.258,7.258,7.258,7.258,7.258,7.258,7.258,7.258,7.258,7.258,7.258,7.258,7.258,7.258,7.258,7.258,7.258,7.258,7.258,7.258,7.258,7.258,7.258,7.258,7.258,7.258,7.258,7.258,7.258,7.258,7.258,7.285,7.074,6.39,5.812,5.574,5.58,5.63,5.76,5.98,6.29,6.445,6.49,6.504,6.49,6.477,6.453,6.43,6.39,6.33,6.23,6.094,5.883,5.598,5.277,4.96,4.69,4.473,4.277,4.09,3.924,3.82,3.695,3.586,3.52,3.48,3.46,3.443,3.432,3.428,3.43,3.43,3.428,3.422,3.412,3.408,3.408,3.408,3.408,3.402,3.398,3.395,3.387,3.379,3.37,3.354,3.336,3.312,3.29,3.266,3.242,3.22,3.205,3.182,3.158,3.135,3.113,3.086,3.064,3.045,3.027,3.012,2.996,2.975,2.955,2.941,2.926,2.904,2.885,2.865,2.844,2.824,2.803,2.78,2.75,2.72,2.693,2.656,2.611,2.566,2.533,2.516,2.51,2.512,2.516,2.516,2.516,2.516,2.508,2.5,2.49,2.48,2.475,2.465,2.457,2.447,2.44,2.432,2.426,2.418,2.416,2.412,2.408,2.406,2.406,2.404,2.4,2.395,2.393,2.389,2.385,2.39,2.404,2.434,2.46,2.486,2.502,2.51,2.516,2.518,2.525,2.53,2.523,2.521,2.52,2.52,2.521,2.521,2.521,2.525,2.525,2.531,2.531,2.533,2.537,2.541,2.541,2.547,2.549,2.55,2.553,2.553,2.557,2.562,2.564,2.568,2.57,2.57,2.57,2.57,2.572,2.574,2.576,2.576,2.58,2.584,2.588,2.592,2.588,2.586,2.59,2.594,2.6,2.604,2.61,2.621,2.63,2.635,2.64,2.639,2.639,2.64,2.652,2.66,2.662,2.664,2.668,2.674,2.678,2.662,2.66,2.67,2.674,2.674,2.678,2.68,2.695,2.703,2.707,2.715,2.723,2.727,2.73,2.73,2.736,2.744,2.754,2.76,2.76,2.754,2.75,2.752,2.752,2.746,2.742,2.744,2.75,2.756,2.758,2.76,2.764,2.762,2.756,2.768,2.77,2.76,2.752,2.746,2.742,2.736,2.725,2.719,2.703,2.684,2.639,2.547,2.367,1.986,1.576,1.34,1.298,1.272,1.252,1.242,1.229,1.216,1.216,1.218,1.224,1.24
3.459,3.477,3.521,3.635,3.701,3.734,3.736,3.738,3.756,3.777,3.785,3.775,3.773,3.787,3.793,3.791,3.785,3.783,3.783,3.783,3.783,3.785,3.793,3.797,3.797,3.795,3.807,3.832,3.84,3.836,3.826,3.809,3.783,3.742,3.68,3.598,3.49,3.36,3.209,3.123,3.059,3.027,3.02,3.012,3.006,3.006,3.008,3.014,3.016,3.021,3.031,3.04,3.045,3.045,3.05,3.057,3.064,3.07,3.078,3.084,3.09,3.094,3.1,3.11,3.115,3.121,3.129,3.137,3.143,3.148,3.154,3.164,3.17,3.176,3.182,3.19,3.197,3.203,3.207,3.21,3.217,3.223,3.227,3.234,3.242,3.246,3.252,3.258,3.264,3.266,3.27,3.277,3.281,3.29,3.297,3.303,3.314,3.314,3.324,3.332,3.34,3.344,3.354,3.363,3.37,3.375,3.38,3.387,3.39,3.39,3.398,3.398,3.406,3.41,3.412,3.42,3.426,3.432,3.436,3.44,3.441,3.447,3.453,3.46,3.465,3.47,3.484,3.494,3.504,3.506,3.506,3.51,3.518,3.527,3.53,3.527,3.527,3.535,3.545,3.553,3.555,3.55,3.545,3.527,3.525,3.582,3.773,4.188,4.83,5.477,5.973,6.402,6.805,7.24,7.26,7.258,7.258,7.258,7.258,7.258,7.258,7.258,7.258,7.258,7.258,7.258,7.258,7.258,7.258,7.258,7.258,7.258,7.258,7.258,7.258,7.258,7.258,7.258,7.258,7.258,7.258,7.258,7.258,7.258,7.258,7.258,7.258,7.258,7.258,7.258,7.258,7.285,7.066,6.39,5.824,5.574,5.57,5.6,5.72,5.918,6.223,6.418,6.47,6.477,6.465,6.45,6.426,6.414,6.375,6.31,6.215,6.055,5.832,5.543,5.234,4.934,4.676,4.465,4.273,4.082,3.922,3.812,3.695,3.582,3.514,3.479,3.457,3.441,3.432,3.428,3.428,3.43,3.424,3.42,3.412,3.408,3.408,3.408,3.408,3.4,3.396,3.395,3.387,3.377,3.37,3.352,3.334,3.312,3.29,3.266,3.24,3.223,3.203,3.18,3.158,3.135,3.11,3.086,3.064,3.045,3.027,3.012,2.994,2.975,2.953,2.938,2.924,2.902,2.883,2.863,2.842,2.822,2.8,2.777,2.75,2.719,2.693,2.656,2.61,2.566,2.533,2.516,2.51,2.512,2.516,2.52,2.52,2.52,2.514,2.502,2.494,2.482,2.475,2.465,2.457,2.447,2.44,2.432,2.426,2.418,2.416,2.414,2.41,2.41,2.406,2.404,2.4,2.396,2.393,2.389,2.385,2.39,2.404,2.438,2.467,2.488,2.504,2.514,2.52,2.521,2.53,2.531,2.527,2.527,2.521,2.525,2.527,2.527,2.527,2.53,2.531,2.533,2.537,2.541,2.545,2.545,2.549,2.553,2.555,2.557,2.559,2.56,2.56,2.564,2.568,2.572,2.576,2.578,2.574,2.574,2.578,2.58,2.58,2.582,2.584,2.588,2.592,2.594,2.592,2.59,2.598,2.604,2.61,2.613,2.617,2.629,2.637,2.639,2.643,2.643,2.639,2.64,2.652,2.66,2.66,2.662,2.666,2.674,2.678,2.664,2.656,2.666,2.672,2.674,2.678,2.68,2.693,2.701,2.705,2.713,2.719,2.727,2.727,2.729,2.734,2.742,2.754,2.76,2.76,2.756,2.752,2.756,2.754,2.746,2.742,2.744,2.75,2.754,2.756,2.764,2.764,2.76,2.758,2.768,2.77,2.762,2.754,2.746,2.744,2.738,2.729,2.72,2.707,2.686,2.64,2.55,2.373,1.997,1.583,1.338,1.295,1.272,1.252,1.241,1.228,1.216,1.215,1.217,1.222,1.239
3.459,3.48,3.527,3.643,3.707,3.738,3.736,3.738,3.756,3.773,3.78,3.771,3.771,3.785,3.787,3.783,3.78,3.78,3.78,3.777,3.777,3.781,3.78,3.787,3.79,3.787,3.79,3.805,3.824,3.826,3.818,3.799,3.773,3.734,3.674,3.592,3.488,3.355,3.203,3.12,3.055,3.027,3.014,3.008,3.0,3.0,3.002,3.008,3.012,3.016,3.025,3.033,3.04,3.045,3.045,3.053,3.06,3.068,3.074,3.08,3.086,3.092,3.098,3.105,3.113,3.117,3.125,3.137,3.143,3.148,3.152,3.162,3.17,3.176,3.182,3.19,3.197,3.203,3.21,3.213,3.219,3.225,3.229,3.238,3.242,3.246,3.252,3.258,3.264,3.27,3.271,3.277,3.281,3.29,3.295,3.305,3.312,3.316,3.324,3.334,3.34,3.346,3.354,3.363,3.37,3.375,3.38,3.389,3.39,3.39,3.396,3.402,3.406,3.412,3.416,3.42,3.428,3.434,3.438,3.441,3.441,3.45,3.455,3.463,3.467,3.473,3.484,3.498,3.506,3.508,3.51,3.514,3.521,3.531,3.533,3.533,3.533,3.54,3.55,3.555,3.555,3.55,3.545,3.521,3.52,3.578,3.775,4.2,4.824,5.44,5.93,6.363,6.785,7.246,7.26,7.258,7.258,7.258,7.258,7.258,7.258,7.258,7.258,7.258,7.258,7.258,7.258,7.258,7.258,7.258,7.258,7.258,7.258,7.258,7.258,7.258,7.258,7.258,7.258,7.258,7.258,7.258,7.258,7.258,7.258,7.258,7.258,7.258,7.258,7.258,7.258,7.285,7.074,6.434,5.855,5.613,5.586,5.594,5.688,5.87,6.168,6.383,6.43,6.445,6.426,6.406,6.383,6.375,6.344,6.277,6.184,6.01,5.773,5.492,5.188,4.902,4.656,4.45,4.26,4.07,3.91,3.805,3.686,3.578,3.512,3.475,3.457,3.44,3.434,3.426,3.424,3.426,3.422,3.418,3.412,3.406,3.408,3.408,3.408,3.4,3.396,3.395,3.387,3.375,3.367,3.348,3.334,3.309,3.287,3.266,3.24,3.22,3.203,3.18,3.158,3.135,3.11,3.086,3.064,3.041,3.025,3.012,2.994,2.975,2.953,2.936,2.92,2.902,2.88,2.863,2.842,2.82,2.8,2.777,2.752,2.717,2.691,2.656,2.61,2.566,2.533,2.514,2.514,2.516,2.518,2.523,2.523,2.52,2.514,2.504,2.492,2.484,2.475,2.467,2.459,2.45,2.44,2.434,2.426,2.422,2.418,2.416,2.412,2.41,2.406,2.404,2.4,2.396,2.393,2.387,2.385,2.393,2.412,2.44,2.473,2.492,2.51,2.518,2.521,2.525,2.531,2.531,2.53,2.53,2.527,2.531,2.53,2.531,2.53,2.533,2.537,2.54,2.541,2.545,2.549,2.549,2.553,2.555,2.56,2.562,2.564,2.564,2.566,2.568,2.572,2.576,2.58,2.58,2.58,2.578,2.582,2.584,2.584,2.588,2.588,2.594,2.598,2.598,2.596,2.596,2.605,2.61,2.615,2.62,2.623,2.633,2.637,2.639,2.64,2.639,2.639,2.639,2.648,2.654,2.654,2.656,2.662,2.67,2.678,2.662,2.656,2.664,2.672,2.674,2.676,2.68,2.691,2.697,2.703,2.709,2.717,2.72,2.725,2.727,2.73,2.738,2.752,2.76,2.76,2.756,2.752,2.756,2.754,2.746,2.742,2.744,2.75,2.756,2.756,2.76,2.764,2.758,2.756,2.768,2.771,2.764,2.754,2.748,2.744,2.742,2.73,2.725,2.71,2.69,2.645,2.55,2.373,1.999,1.585,1.339,1.294,1.271,1.251,1.241,1.227,1.215,1.213,1.216,1.221,1.238
3.457,3.49,3.54,3.652,3.715,3.748,3.738,3.738,3.752,3.771,3.781,3.771,3.771,3.781,3.787,3.783,3.777,3.777,3.777,3.771,3.773,3.771,3.768,3.78,3.78,3.781,3.783,3.795,3.8,3.809,3.807,3.793,3.77,3.727,3.666,3.584,3.484,3.355,3.203,3.115,3.053,3.02,3.01,3.006,2.994,2.996,2.998,3.004,3.01,3.014,3.023,3.03,3.035,3.04,3.043,3.049,3.057,3.064,3.07,3.076,3.082,3.09,3.096,3.104,3.111,3.117,3.125,3.133,3.143,3.148,3.152,3.164,3.17,3.176,3.182,3.19,3.197,3.203,3.207,3.213,3.219,3.223,3.229,3.236,3.24,3.246,3.252,3.26,3.264,3.266,3.271,3.277,3.283,3.29,3.297,3.305,3.314,3.316,3.32,3.332,3.34,3.344,3.354,3.363,3.371,3.375,3.38,3.389,3.39,3.39,3.398,3.4,3.406,3.408,3.412,3.42,3.428,3.432,3.438,3.441,3.443,3.451,3.459,3.465,3.467,3.473,3.484,3.498,3.51,3.508,3.51,3.518,3.523,3.531,3.533,3.537,3.537,3.545,3.553,3.555,3.555,3.547,3.543,3.516,3.512,3.574,3.777,4.207,4.824,5.414,5.87,6.293,6.74,7.22,7.266,7.258,7.258,7.258,7.258,7.258,7.258,7.258,7.258,7.258,7.258,7.258,7.258,7.258,7.258,7.258,7.258,7.258,7.258,7.258,7.258,7.258,7.258,7.258,7.258,7.258,7.258,7.258,7.258,7.258,7.258,7.258,7.258,7.258,7.258,7.258,7.258,7.285,7.08,6.457,5.9,5.64,5.586,5.566,5.64,5.816,6.094,6.33,6.367,6.39,6.383,6.35,6.336,6.33,6.297,6.234,6.137,5.957,5.715,5.438,5.137,4.87,4.637,4.438,4.254,4.062,3.91,3.803,3.686,3.578,3.51,3.475,3.457,3.44,3.434,3.43,3.426,3.426,3.422,3.418,3.41,3.406,3.406,3.408,3.408,3.402,3.396,3.395,3.387,3.377,3.367,3.352,3.334,3.309,3.287,3.264,3.24,3.219,3.2,3.178,3.154,3.133,3.11,3.086,3.06,3.041,3.023,3.008,2.992,2.973,2.955,2.936,2.916,2.898,2.879,2.861,2.84,2.82,2.799,2.777,2.75,2.719,2.688,2.654,2.61,2.566,2.533,2.518,2.514,2.516,2.521,2.525,2.525,2.523,2.518,2.508,2.494,2.488,2.477,2.469,2.459,2.451,2.443,2.436,2.43,2.424,2.418,2.418,2.414,2.412,2.41,2.406,2.398,2.396,2.393,2.39,2.39,2.398,2.414,2.443,2.477,2.498,2.512,2.52,2.53,2.53,2.531,2.533,2.531,2.53,2.531,2.535,2.533,2.533,2.533,2.535,2.54,2.541,2.545,2.549,2.553,2.553,2.555,2.56,2.562,2.564,2.566,2.568,2.57,2.572,2.576,2.58,2.58,2.582,2.582,2.582,2.584,2.586,2.588,2.59,2.592,2.596,2.6,2.602,2.6,2.6,2.61,2.613,2.62,2.621,2.625,2.637,2.64,2.637,2.635,2.633,2.629,2.63,2.64,2.646,2.646,2.646,2.652,2.666,2.668,2.654,2.648,2.66,2.67,2.674,2.678,2.68,2.69,2.697,2.703,2.707,2.717,2.72,2.723,2.725,2.73,2.74,2.752,2.76,2.762,2.756,2.75,2.754,2.754,2.748,2.744,2.746,2.75,2.754,2.756,2.76,2.764,2.758,2.754,2.768,2.773,2.764,2.754,2.75,2.748,2.742,2.732,2.727,2.713,2.691,2.645,2.55,2.365,1.99,1.583,1.34,1.293,1.271,1.251,1.24,1.226,1.214,1.212,1.216,1.22,1.238
3.455,3.492,3.547,3.662,3.72,3.748,3.744,3.738,3.754,3.771,3.781,3.771,3.771,3.781,3.783,3.78,3.773,3.771,3.771,3.766,3.764,3.762,3.77,3.775,3.766,3.777,3.781,3.791,3.795,3.783,3.795,3.783,3.756,3.715,3.656,3.58,3.484,3.36,3.209,3.12,3.049,3.018,3.01,3.002,2.992,2.992,2.996,2.998,3.004,3.01,3.02,3.027,3.03,3.037,3.04,3.045,3.055,3.06,3.068,3.074,3.08,3.084,3.092,3.102,3.111,3.117,3.121,3.13,3.139,3.143,3.15,3.158,3.168,3.176,3.182,3.188,3.193,3.201,3.205,3.21,3.217,3.223,3.225,3.234,3.24,3.24,3.248,3.252,3.26,3.264,3.27,3.273,3.28,3.283,3.29,3.299,3.309,3.314,3.32,3.326,3.336,3.344,3.35,3.357,3.367,3.371,3.375,3.383,3.389,3.39,3.39,3.398,3.404,3.406,3.412,3.42,3.424,3.432,3.438,3.441,3.443,3.447,3.453,3.465,3.467,3.473,3.482,3.494,3.5,3.508,3.51,3.518,3.523,3.531,3.531,3.533,3.535,3.543,3.55,3.555,3.559,3.547,3.545,3.52,3.516,3.58,3.787,4.23,4.824,5.395,5.82,6.2,6.68,7.19,7.27,7.258,7.258,7.258,7.258,7.258,7.258,7.258,7.258,7.258,7.258,7.258,7.258,7.258,7.258,7.258,7.258,7.258,7.258,7.258,7.258,7.258,7.258,7.258,7.258,7.258,7.258,7.258,7.258,7.258,7.258,7.258,7.258,7.258,7.258,7.258,7.258,7.285,7.074,6.42,5.863,5.605,5.527,5.49,5.535,5.668,5.918,6.18,6.293,6.312,6.324,6.312,6.29,6.27,6.24,6.176,6.074,5.89,5.65,5.375,5.098,4.844,4.617,4.43,4.258,4.074,3.918,3.814,3.703,3.592,3.521,3.484,3.463,3.45,3.443,3.438,3.434,3.43,3.428,3.422,3.416,3.414,3.414,3.414,3.414,3.406,3.4,3.393,3.387,3.38,3.37,3.354,3.334,3.309,3.285,3.26,3.236,3.217,3.197,3.178,3.152,3.127,3.105,3.082,3.059,3.035,3.021,3.008,2.99,2.97,2.95,2.932,2.912,2.895,2.879,2.857,2.838,2.818,2.795,2.773,2.748,2.717,2.686,2.65,2.61,2.562,2.533,2.52,2.516,2.518,2.523,2.527,2.53,2.525,2.52,2.51,2.498,2.488,2.48,2.473,2.465,2.455,2.445,2.44,2.432,2.426,2.422,2.418,2.418,2.414,2.412,2.41,2.404,2.398,2.396,2.393,2.393,2.4,2.422,2.451,2.484,2.504,2.518,2.527,2.535,2.535,2.537,2.535,2.535,2.535,2.535,2.537,2.541,2.537,2.54,2.541,2.545,2.545,2.547,2.549,2.553,2.555,2.56,2.562,2.562,2.568,2.57,2.57,2.572,2.572,2.578,2.58,2.584,2.586,2.584,2.584,2.588,2.59,2.59,2.592,2.594,2.598,2.602,2.602,2.602,2.602,2.61,2.611,2.615,2.617,2.62,2.625,2.627,2.625,2.623,2.62,2.613,2.611,2.617,2.623,2.633,2.635,2.64,2.648,2.65,2.639,2.639,2.652,2.664,2.67,2.674,2.68,2.69,2.695,2.703,2.707,2.717,2.72,2.723,2.727,2.73,2.738,2.754,2.764,2.766,2.76,2.754,2.758,2.756,2.748,2.746,2.748,2.752,2.758,2.76,2.764,2.764,2.762,2.754,2.768,2.771,2.764,2.758,2.752,2.748,2.744,2.734,2.73,2.715,2.691,2.64,2.549,2.355,1.974,1.58,1.338,1.292,1.27,1.249,1.238,1.224,1.212,1.21,1.215,1.219,1.238
3.45,3.494,3.549,3.668,3.727,3.758,3.742,3.738,3.754,3.773,3.781,3.771,3.771,3.781,3.783,3.777,3.773,3.766,3.76,3.756,3.754,3.754,3.77,3.771,3.766,3.766,3.777,3.79,3.795,3.781,3.777,3.768,3.74,3.707,3.652,3.572,3.484,3.363,3.21,3.12,3.049,3.018,3.008,3.002,2.99,2.99,2.992,2.996,3.004,3.006,3.014,3.023,3.027,3.031,3.035,3.043,3.049,3.059,3.064,3.068,3.076,3.084,3.092,3.1,3.105,3.113,3.121,3.127,3.139,3.143,3.148,3.156,3.166,3.172,3.182,3.188,3.193,3.197,3.203,3.21,3.215,3.217,3.223,3.229,3.234,3.24,3.242,3.25,3.256,3.26,3.264,3.271,3.277,3.283,3.29,3.297,3.305,3.309,3.316,3.326,3.332,3.34,3.348,3.357,3.363,3.371,3.375,3.383,3.385,3.389,3.39,3.398,3.402,3.404,3.412,3.418,3.424,3.43,3.434,3.44,3.445,3.447,3.453,3.46,3.467,3.473,3.482,3.492,3.5,3.508,3.51,3.514,3.521,3.531,3.531,3.531,3.533,3.54,3.55,3.559,3.562,3.549,3.547,3.527,3.518,3.594,3.797,4.25,4.832,5.387,5.777,6.14,6.664,7.203,7.27,7.258,7.258,7.258,7.258,7.258,7.258,7.258,7.258,7.258,7.258,7.258,7.258,7.258,7.258,7.258,7.258,7.258,7.258,7.258,7.258,7.258,7.258,7.258,7.258,7.258,7.258,7.258,7.258,7.258,7.258,7.258,7.258,7.258,7.258,7.258,7.258,7.29,7.055,6.336,5.77,5.49,5.406,5.35,5.34,5.426,5.633,5.91,6.14,6.215,6.23,6.223,6.223,6.195,6.152,6.09,5.992,5.81,5.57,5.312,5.047,4.812,4.6,4.426,4.26,4.08,3.926,3.826,3.719,3.604,3.53,3.492,3.47,3.455,3.447,3.44,3.436,3.432,3.428,3.424,3.418,3.414,3.414,3.414,3.414,3.406,3.402,3.398,3.393,3.38,3.37,3.355,3.334,3.309,3.285,3.26,3.236,3.213,3.193,3.172,3.148,3.125,3.102,3.078,3.055,3.033,3.018,3.0,2.986,2.967,2.947,2.93,2.908,2.889,2.873,2.854,2.834,2.814,2.795,2.771,2.748,2.713,2.684,2.65,2.604,2.56,2.533,2.52,2.516,2.518,2.523,2.53,2.53,2.53,2.52,2.512,2.5,2.49,2.48,2.473,2.465,2.457,2.451,2.443,2.434,2.43,2.424,2.42,2.418,2.414,2.412,2.41,2.406,2.404,2.396,2.395,2.395,2.406,2.424,2.459,2.488,2.51,2.52,2.531,2.54,2.543,2.541,2.543,2.54,2.537,2.54,2.543,2.545,2.543,2.541,2.545,2.545,2.547,2.549,2.553,2.555,2.56,2.56,2.564,2.568,2.572,2.572,2.572,2.576,2.578,2.582,2.584,2.586,2.59,2.586,2.59,2.59,2.59,2.592,2.594,2.596,2.6,2.604,2.607,2.604,2.602,2.611,2.613,2.615,2.613,2.61,2.617,2.623,2.617,2.613,2.61,2.604,2.6,2.604,2.607,2.61,2.615,2.62,2.633,2.639,2.63,2.63,2.643,2.656,2.666,2.674,2.678,2.686,2.693,2.697,2.707,2.715,2.72,2.723,2.729,2.732,2.742,2.756,2.766,2.768,2.762,2.758,2.76,2.76,2.752,2.748,2.75,2.756,2.76,2.764,2.766,2.766,2.762,2.758,2.771,2.777,2.768,2.758,2.754,2.75,2.744,2.738,2.73,2.719,2.691,2.643,2.549,2.348,1.96,1.572,1.337,1.292,1.27,1.248,1.237,1.222,1.211,1.21,1.214,1.218,1.238
3.443,3.492,3.549,3.67,3.73,3.758,3.744,3.738,3.754,3.773,3.781,3.773,3.771,3.787,3.783,3.777,3.773,3.754,3.752,3.746,3.746,3.758,3.77,3.771,3.766,3.766,3.768,3.783,3.795,3.785,3.754,3.758,3.734,3.7,3.65,3.572,3.486,3.37,3.217,3.121,3.049,3.018,3.008,3.0,2.986,2.984,2.988,2.992,2.996,3.004,3.012,3.018,3.023,3.027,3.031,3.041,3.049,3.055,3.062,3.07,3.072,3.082,3.09,3.098,3.105,3.111,3.117,3.127,3.139,3.14,3.145,3.156,3.166,3.172,3.18,3.188,3.193,3.197,3.201,3.207,3.215,3.217,3.223,3.229,3.236,3.236,3.24,3.246,3.252,3.26,3.264,3.268,3.273,3.281,3.287,3.295,3.3,3.309,3.314,3.32,3.332,3.34,3.344,3.355,3.363,3.371,3.375,3.38,3.385,3.387,3.39,3.398,3.398,3.402,3.406,3.414,3.424,3.428,3.436,3.44,3.443,3.447,3.457,3.465,3.467,3.473,3.482,3.492,3.5,3.508,3.51,3.518,3.523,3.531,3.531,3.533,3.533,3.543,3.553,3.562,3.57,3.557,3.549,3.537,3.53,3.611,3.807,4.254,4.83,5.38,5.766,6.156,6.71,7.258,7.26,7.258,7.258,7.258,7.258,7.258,7.258,7.258,7.258,7.258,7.258,7.258,7.258,7.258,7.258,7.258,7.258,7.258,7.258,7.258,7.258,7.258,7.258,7.258,7.258,7.258,7.258,7.258,7.258,7.258,7.258,7.258,7.258,7.258,7.258,7.258,7.258,7.29,7.027,6.24,5.64,5.344,5.24,5.18,5.133,5.16,5.31,5.56,5.83,6.035,6.113,6.12,6.117,6.105,6.06,5.996,5.89,5.715,5.496,5.254,4.996,4.773,4.58,4.414,4.258,4.086,3.936,3.834,3.73,3.617,3.541,3.498,3.477,3.457,3.451,3.445,3.438,3.436,3.43,3.422,3.418,3.414,3.414,3.414,3.414,3.408,3.404,3.396,3.39,3.38,3.37,3.354,3.334,3.309,3.281,3.258,3.236,3.21,3.191,3.17,3.148,3.123,3.098,3.076,3.053,3.033,3.016,3.0,2.982,2.965,2.945,2.926,2.906,2.885,2.867,2.852,2.834,2.812,2.791,2.77,2.744,2.713,2.68,2.646,2.602,2.56,2.533,2.52,2.516,2.52,2.527,2.531,2.531,2.53,2.521,2.514,2.502,2.492,2.484,2.477,2.47,2.459,2.451,2.443,2.438,2.43,2.426,2.422,2.418,2.418,2.414,2.412,2.41,2.402,2.4,2.398,2.398,2.41,2.43,2.469,2.498,2.512,2.527,2.535,2.543,2.547,2.547,2.547,2.547,2.547,2.545,2.545,2.547,2.547,2.545,2.545,2.547,2.549,2.55,2.553,2.557,2.56,2.564,2.568,2.572,2.572,2.576,2.578,2.58,2.582,2.584,2.59,2.592,2.59,2.59,2.59,2.592,2.594,2.598,2.596,2.602,2.602,2.604,2.607,2.604,2.602,2.611,2.613,2.611,2.607,2.605,2.617,2.62,2.613,2.61,2.605,2.6,2.596,2.598,2.6,2.6,2.602,2.613,2.625,2.63,2.621,2.623,2.637,2.65,2.662,2.668,2.678,2.684,2.69,2.695,2.705,2.713,2.72,2.723,2.729,2.736,2.744,2.76,2.77,2.771,2.766,2.76,2.764,2.762,2.754,2.75,2.754,2.758,2.764,2.764,2.768,2.768,2.764,2.758,2.77,2.78,2.77,2.758,2.754,2.75,2.746,2.74,2.736,2.72,2.695,2.645,2.553,2.348,1.951,1.565,1.337,1.292,1.269,1.248,1.236,1.22,1.209,1.209,1.214,1.218,1.238
3.441,3.484,3.541,3.664,3.729,3.758,3.744,3.74,3.752,3.773,3.781,3.775,3.771,3.787,3.783,3.777,3.76,3.752,3.746,3.738,3.736,3.748,3.756,3.76,3.754,3.758,3.764,3.771,3.785,3.777,3.744,3.74,3.723,3.688,3.643,3.568,3.482,3.37,3.217,3.121,3.047,3.016,3.006,2.996,2.982,2.98,2.982,2.988,2.994,2.998,3.008,3.016,3.021,3.025,3.03,3.04,3.047,3.055,3.059,3.066,3.072,3.08,3.086,3.096,3.104,3.111,3.115,3.127,3.135,3.139,3.145,3.156,3.164,3.172,3.18,3.184,3.19,3.195,3.197,3.205,3.21,3.215,3.217,3.227,3.234,3.236,3.238,3.242,3.25,3.254,3.26,3.266,3.271,3.277,3.283,3.291,3.299,3.305,3.31,3.32,3.328,3.336,3.344,3.354,3.36,3.367,3.373,3.379,3.383,3.383,3.389,3.395,3.396,3.398,3.404,3.414,3.422,3.426,3.434,3.44,3.443,3.45,3.457,3.465,3.469,3.473,3.484,3.492,3.5,3.51,3.514,3.518,3.525,3.531,3.533,3.541,3.541,3.55,3.562,3.572,3.586,3.574,3.56,3.555,3.545,3.633,3.816,4.26,4.832,5.37,5.773,6.195,6.766,7.293,7.258,7.258,7.258,7.258,7.258,7.258,7.258,7.258,7.258,7.258,7.258,7.258,7.258,7.258,7.258,7.258,7.258,7.258,7.258,7.258,7.258,7.258,7.258,7.258,7.258,7.258,7.258,7.258,7.258,7.258,7.258,7.258,7.258,7.258,7.258,7.258,7.258,7.297,6.996,6.156,5.566,5.266,5.125,5.047,4.992,4.977,5.082,5.277,5.527,5.76,5.94,6.01,6.02,6.016,5.977,5.906,5.797,5.64,5.438,5.2,4.945,4.727,4.54,4.387,4.242,4.07,3.93,3.83,3.73,3.62,3.541,3.498,3.475,3.457,3.451,3.443,3.44,3.436,3.43,3.422,3.418,3.414,3.414,3.414,3.414,3.406,3.4,3.395,3.387,3.377,3.367,3.35,3.332,3.305,3.28,3.254,3.232,3.209,3.186,3.164,3.14,3.121,3.096,3.072,3.049,3.027,3.012,2.996,2.98,2.959,2.94,2.92,2.902,2.88,2.857,2.844,2.828,2.809,2.79,2.768,2.742,2.707,2.676,2.645,2.6,2.56,2.533,2.52,2.518,2.521,2.527,2.533,2.531,2.531,2.525,2.518,2.506,2.496,2.488,2.477,2.47,2.463,2.453,2.447,2.441,2.434,2.43,2.426,2.42,2.418,2.416,2.414,2.41,2.404,2.4,2.398,2.4,2.414,2.44,2.473,2.5,2.518,2.53,2.535,2.547,2.547,2.547,2.547,2.547,2.547,2.545,2.547,2.547,2.547,2.549,2.549,2.549,2.553,2.553,2.557,2.56,2.562,2.566,2.568,2.572,2.576,2.578,2.58,2.58,2.584,2.588,2.59,2.592,2.594,2.592,2.594,2.596,2.598,2.6,2.602,2.602,2.604,2.607,2.611,2.607,2.604,2.61,2.611,2.611,2.605,2.607,2.617,2.621,2.615,2.611,2.605,2.602,2.598,2.598,2.602,2.602,2.604,2.61,2.621,2.625,2.617,2.62,2.633,2.646,2.662,2.67,2.676,2.682,2.686,2.693,2.701,2.709,2.719,2.723,2.729,2.736,2.744,2.762,2.771,2.775,2.77,2.764,2.764,2.764,2.758,2.754,2.756,2.758,2.762,2.764,2.768,2.768,2.764,2.758,2.773,2.78,2.771,2.76,2.754,2.754,2.752,2.746,2.742,2.727,2.7,2.648,2.559,2.357,1.955,1.5625,1.339,1.294,1.27,1.248,1.235,1.219,1.208,1.208,1.213,1.218,1.239
3.434,3.477,3.533,3.658,3.723,3.752,3.74,3.736,3.748,3.77,3.78,3.771,3.771,3.787,3.783,3.777,3.756,3.748,3.744,3.73,3.729,3.734,3.744,3.74,3.738,3.744,3.75,3.762,3.768,3.764,3.738,3.715,3.709,3.678,3.633,3.564,3.479,3.365,3.217,3.12,3.045,3.014,3.004,2.994,2.979,2.977,2.977,2.982,2.988,2.994,3.002,3.012,3.016,3.021,3.025,3.035,3.045,3.05,3.057,3.064,3.07,3.076,3.084,3.094,3.102,3.11,3.117,3.123,3.133,3.139,3.145,3.156,3.166,3.17,3.18,3.184,3.188,3.193,3.2,3.205,3.213,3.213,3.217,3.225,3.23,3.234,3.236,3.242,3.248,3.252,3.258,3.262,3.268,3.273,3.281,3.291,3.295,3.299,3.309,3.316,3.322,3.33,3.34,3.346,3.357,3.365,3.37,3.375,3.379,3.379,3.385,3.393,3.398,3.396,3.4,3.41,3.42,3.426,3.432,3.438,3.443,3.447,3.455,3.465,3.469,3.473,3.484,3.492,3.5,3.51,3.516,3.518,3.527,3.535,3.54,3.543,3.549,3.559,3.574,3.582,3.598,3.59,3.576,3.564,3.562,3.652,3.822,4.25,4.81,5.35,5.76,6.2,6.78,7.29,7.258,7.258,7.258,7.258,7.258,7.258,7.258,7.258,7.258,7.258,7.258,7.258,7.258,7.258,7.258,7.258,7.258,7.258,7.258,7.258,7.258,7.258,7.258,7.258,7.258,7.258,7.258,7.258,7.258,7.258,7.258,7.258,7.258,7.258,7.258,7.258,7.258,7.285,6.934,6.086,5.53,5.25,5.09,5.0,4.953,4.92,4.973,5.113,5.316,5.516,5.703,5.848,5.906,5.918,5.88,5.816,5.71,5.566,5.375,5.14,4.887,4.676,4.504,4.355,4.21,4.05,3.92,3.82,3.725,3.621,3.543,3.498,3.475,3.455,3.451,3.447,3.441,3.436,3.43,3.426,3.422,3.416,3.414,3.414,3.414,3.406,3.4,3.393,3.387,3.373,3.363,3.348,3.328,3.305,3.275,3.252,3.227,3.203,3.18,3.158,3.137,3.113,3.09,3.066,3.041,3.021,3.006,2.988,2.973,2.953,2.934,2.916,2.896,2.875,2.855,2.834,2.822,2.803,2.783,2.762,2.736,2.707,2.672,2.643,2.6,2.56,2.533,2.521,2.52,2.523,2.53,2.535,2.535,2.531,2.53,2.52,2.51,2.5,2.488,2.484,2.473,2.467,2.459,2.451,2.443,2.44,2.434,2.43,2.426,2.42,2.418,2.416,2.41,2.408,2.404,2.402,2.404,2.418,2.445,2.479,2.506,2.52,2.53,2.54,2.545,2.547,2.549,2.547,2.549,2.547,2.547,2.549,2.55,2.55,2.55,2.553,2.553,2.557,2.557,2.56,2.562,2.564,2.566,2.57,2.574,2.578,2.58,2.58,2.586,2.586,2.59,2.592,2.594,2.596,2.596,2.598,2.6,2.602,2.602,2.602,2.604,2.605,2.61,2.611,2.61,2.607,2.61,2.607,2.61,2.607,2.61,2.617,2.623,2.613,2.611,2.607,2.604,2.602,2.6,2.602,2.6,2.602,2.607,2.615,2.62,2.611,2.617,2.63,2.645,2.66,2.666,2.674,2.68,2.684,2.691,2.697,2.709,2.715,2.72,2.727,2.736,2.744,2.762,2.771,2.775,2.77,2.764,2.768,2.766,2.76,2.756,2.756,2.76,2.762,2.766,2.768,2.77,2.764,2.76,2.777,2.783,2.771,2.762,2.758,2.76,2.758,2.752,2.748,2.734,2.705,2.658,2.568,2.373,1.968,1.564,1.339,1.295,1.2705,1.249,1.235,1.218,1.207,1.208,1.213,1.218,1.239
3.426,3.469,3.52,3.646,3.713,3.75,3.74,3.738,3.754,3.771,3.781,3.771,3.775,3.785,3.783,3.777,3.756,3.75,3.744,3.729,3.727,3.734,3.736,3.736,3.727,3.736,3.744,3.75,3.752,3.752,3.73,3.705,3.7,3.67,3.625,3.559,3.475,3.363,3.22,3.123,3.045,3.014,3.004,2.992,2.979,2.975,2.977,2.979,2.986,2.992,3.0,3.008,3.012,3.016,3.025,3.035,3.043,3.05,3.055,3.062,3.07,3.074,3.084,3.092,3.1,3.105,3.117,3.121,3.133,3.139,3.145,3.154,3.164,3.17,3.178,3.182,3.188,3.193,3.197,3.203,3.209,3.213,3.215,3.22,3.23,3.23,3.232,3.238,3.244,3.248,3.254,3.262,3.266,3.271,3.277,3.285,3.291,3.299,3.305,3.316,3.32,3.326,3.34,3.346,3.354,3.361,3.367,3.371,3.377,3.379,3.383,3.393,3.39,3.395,3.4,3.408,3.418,3.426,3.432,3.438,3.443,3.447,3.457,3.465,3.473,3.477,3.484,3.492,3.5,3.51,3.516,3.52,3.53,3.537,3.543,3.549,3.555,3.568,3.582,3.59,3.611,3.604,3.59,3.58,3.586,3.668,3.828,4.207,4.74,5.277,5.7,6.152,6.75,7.293,7.258,7.258,7.258,7.258,7.258,7.258,7.258,7.258,7.258,7.258,7.258,7.258,7.258,7.258,7.258,7.258,7.258,7.258,7.258,7.258,7.258,7.258,7.258,7.258,7.258,7.258,7.258,7.258,7.258,7.258,7.258,7.258,7.258,7.258,7.258,7.258,7.26,7.25,6.836,6.035,5.504,5.242,5.082,5.0,4.957,4.938,4.965,5.07,5.203,5.36,5.523,5.67,5.773,5.8,5.773,5.71,5.613,5.477,5.305,5.066,4.832,4.625,4.457,4.32,4.19,4.04,3.91,3.816,3.727,3.625,3.547,3.504,3.475,3.46,3.455,3.45,3.443,3.436,3.43,3.428,3.422,3.416,3.414,3.414,3.41,3.406,3.396,3.395,3.383,3.373,3.363,3.342,3.324,3.299,3.273,3.246,3.22,3.2,3.18,3.154,3.129,3.107,3.084,3.062,3.037,3.018,3.0,2.984,2.969,2.95,2.93,2.91,2.89,2.871,2.848,2.828,2.814,2.799,2.78,2.758,2.734,2.703,2.668,2.639,2.598,2.56,2.537,2.521,2.52,2.523,2.533,2.537,2.537,2.535,2.53,2.521,2.51,2.502,2.492,2.486,2.48,2.469,2.463,2.457,2.45,2.443,2.436,2.434,2.43,2.426,2.42,2.418,2.416,2.414,2.408,2.41,2.41,2.424,2.453,2.484,2.51,2.527,2.533,2.541,2.545,2.547,2.55,2.55,2.55,2.55,2.55,2.553,2.553,2.553,2.553,2.553,2.557,2.557,2.56,2.562,2.562,2.566,2.57,2.572,2.578,2.58,2.58,2.584,2.586,2.59,2.59,2.596,2.596,2.6,2.6,2.6,2.602,2.602,2.604,2.605,2.605,2.61,2.613,2.615,2.613,2.61,2.61,2.61,2.61,2.607,2.61,2.617,2.62,2.613,2.61,2.607,2.604,2.6,2.598,2.596,2.598,2.6,2.605,2.613,2.615,2.607,2.613,2.629,2.645,2.658,2.664,2.67,2.678,2.682,2.688,2.695,2.705,2.709,2.717,2.725,2.734,2.744,2.762,2.771,2.775,2.77,2.766,2.768,2.766,2.76,2.76,2.76,2.762,2.764,2.766,2.771,2.771,2.768,2.764,2.777,2.787,2.775,2.766,2.76,2.768,2.762,2.756,2.754,2.738,2.713,2.666,2.582,2.39,1.991,1.572,1.34,1.296,1.2705,1.249,1.234,1.217,1.205,1.206,1.212,1.218,1.238
3.43,3.46,3.512,3.633,3.703,3.742,3.736,3.738,3.748,3.771,3.781,3.771,3.775,3.791,3.783,3.775,3.76,3.75,3.75,3.734,3.727,3.734,3.738,3.732,3.727,3.736,3.742,3.748,3.75,3.752,3.73,3.709,3.7,3.674,3.63,3.56,3.475,3.37,3.227,3.125,3.043,3.014,3.004,2.992,2.973,2.97,2.973,2.975,2.979,2.986,2.996,3.004,3.008,3.014,3.02,3.03,3.041,3.045,3.05,3.059,3.064,3.072,3.082,3.092,3.098,3.105,3.111,3.121,3.13,3.139,3.143,3.154,3.164,3.17,3.176,3.182,3.188,3.191,3.197,3.2,3.209,3.213,3.215,3.22,3.229,3.23,3.232,3.238,3.242,3.248,3.254,3.262,3.266,3.273,3.28,3.285,3.291,3.299,3.305,3.316,3.32,3.326,3.34,3.346,3.354,3.361,3.367,3.375,3.379,3.379,3.383,3.39,3.39,3.393,3.4,3.408,3.416,3.424,3.43,3.434,3.44,3.447,3.453,3.463,3.467,3.473,3.48,3.49,3.5,3.504,3.51,3.516,3.523,3.531,3.537,3.549,3.557,3.568,3.582,3.59,3.61,3.607,3.596,3.584,3.594,3.67,3.818,4.15,4.625,5.168,5.613,6.066,6.668,7.254,7.26,7.258,7.258,7.258,7.258,7.258,7.258,7.258,7.258,7.258,7.258,7.258,7.258,7.258,7.258,7.258,7.258,7.258,7.258,7.258,7.258,7.258,7.258,7.258,7.258,7.258,7.258,7.258,7.258,7.258,7.258,7.258,7.258,7.258,7.258,7.258,7.26,7.23,6.79,6.055,5.527,5.266,5.1,5.023,4.977,4.977,5.027,5.082,5.168,5.266,5.4,5.535,5.64,5.69,5.676,5.61,5.51,5.395,5.234,5.008,4.785,4.59,4.43,4.3,4.17,4.027,3.9,3.812,3.725,3.629,3.55,3.508,3.48,3.463,3.457,3.45,3.443,3.438,3.434,3.428,3.422,3.418,3.416,3.414,3.414,3.406,3.4,3.395,3.383,3.373,3.363,3.348,3.33,3.3,3.273,3.248,3.223,3.2,3.18,3.154,3.133,3.11,3.086,3.062,3.04,3.018,3.0,2.984,2.969,2.95,2.926,2.906,2.887,2.865,2.846,2.824,2.809,2.795,2.775,2.754,2.729,2.697,2.666,2.633,2.596,2.56,2.537,2.521,2.52,2.525,2.533,2.537,2.537,2.535,2.53,2.523,2.514,2.502,2.494,2.488,2.48,2.47,2.463,2.457,2.451,2.443,2.44,2.434,2.43,2.426,2.42,2.418,2.416,2.414,2.41,2.41,2.414,2.432,2.46,2.492,2.516,2.53,2.537,2.541,2.547,2.55,2.553,2.55,2.553,2.553,2.553,2.557,2.557,2.557,2.557,2.557,2.557,2.56,2.56,2.562,2.566,2.57,2.572,2.578,2.582,2.584,2.586,2.59,2.59,2.594,2.598,2.6,2.6,2.602,2.602,2.602,2.605,2.605,2.605,2.607,2.61,2.613,2.617,2.62,2.615,2.611,2.611,2.611,2.611,2.61,2.611,2.621,2.623,2.62,2.615,2.61,2.607,2.604,2.602,2.602,2.602,2.604,2.61,2.617,2.617,2.61,2.615,2.63,2.646,2.66,2.666,2.676,2.68,2.682,2.688,2.697,2.705,2.709,2.715,2.723,2.732,2.744,2.758,2.77,2.773,2.77,2.764,2.766,2.766,2.76,2.76,2.76,2.762,2.764,2.768,2.771,2.775,2.771,2.766,2.785,2.791,2.78,2.77,2.766,2.771,2.766,2.76,2.756,2.742,2.715,2.674,2.592,2.41,2.016,1.586,1.34,1.297,1.272,1.249,1.234,1.217,1.205,1.206,1.212,1.218,1.238
3.434,3.457,3.506,3.625,3.695,3.734,3.732,3.736,3.748,3.768,3.78,3.771,3.775,3.79,3.783,3.775,3.764,3.76,3.752,3.738,3.732,3.74,3.744,3.74,3.736,3.74,3.748,3.754,3.76,3.754,3.736,3.717,3.707,3.676,3.633,3.566,3.475,3.373,3.23,3.129,3.045,3.014,2.998,2.988,2.97,2.967,2.969,2.973,2.977,2.98,2.992,3.0,3.004,3.01,3.02,3.03,3.04,3.045,3.049,3.057,3.064,3.07,3.078,3.088,3.096,3.102,3.111,3.117,3.127,3.133,3.139,3.15,3.158,3.168,3.172,3.178,3.186,3.19,3.193,3.2,3.207,3.21,3.21,3.219,3.227,3.23,3.23,3.238,3.244,3.248,3.254,3.26,3.268,3.273,3.281,3.291,3.295,3.299,3.305,3.316,3.32,3.328,3.34,3.35,3.36,3.365,3.37,3.375,3.379,3.379,3.383,3.39,3.39,3.393,3.396,3.406,3.416,3.42,3.426,3.434,3.44,3.447,3.453,3.46,3.467,3.475,3.479,3.484,3.492,3.498,3.502,3.51,3.52,3.53,3.533,3.545,3.557,3.568,3.578,3.582,3.605,3.605,3.596,3.582,3.592,3.664,3.81,4.105,4.54,5.082,5.543,6.0,6.58,7.145,7.277,7.258,7.258,7.258,7.258,7.258,7.258,7.258,7.258,7.258,7.258,7.258,7.258,7.258,7.258,7.258,7.258,7.258,7.258,7.258,7.258,7.258,7.258,7.258,7.258,7.258,7.258,7.258,7.258,7.258,7.258,7.258,7.258,7.258,7.258,7.258,7.26,7.223,6.785,6.12,5.62,5.33,5.156,5.08,5.05,5.055,5.082,5.11,5.145,5.223,5.33,5.44,5.54,5.59,5.58,5.52,5.418,5.297,5.16,4.96,4.758,4.57,4.41,4.28,4.156,4.027,3.89,3.807,3.723,3.63,3.557,3.512,3.482,3.463,3.459,3.453,3.447,3.443,3.436,3.428,3.422,3.42,3.418,3.414,3.414,3.406,3.4,3.395,3.387,3.375,3.363,3.35,3.328,3.305,3.28,3.252,3.225,3.201,3.18,3.156,3.135,3.111,3.092,3.066,3.04,3.02,3.004,2.984,2.969,2.95,2.926,2.906,2.887,2.865,2.842,2.822,2.809,2.793,2.77,2.75,2.725,2.695,2.66,2.625,2.592,2.559,2.533,2.521,2.52,2.523,2.533,2.537,2.537,2.531,2.53,2.521,2.51,2.502,2.492,2.488,2.479,2.469,2.46,2.455,2.447,2.443,2.436,2.434,2.428,2.422,2.418,2.418,2.416,2.412,2.408,2.408,2.414,2.438,2.465,2.496,2.521,2.535,2.54,2.545,2.547,2.55,2.553,2.555,2.555,2.555,2.555,2.559,2.562,2.559,2.557,2.56,2.562,2.562,2.562,2.566,2.57,2.572,2.576,2.582,2.584,2.59,2.592,2.59,2.596,2.598,2.602,2.602,2.602,2.602,2.602,2.604,2.607,2.607,2.607,2.61,2.611,2.615,2.62,2.623,2.621,2.615,2.613,2.613,2.611,2.611,2.613,2.621,2.623,2.623,2.62,2.615,2.613,2.607,2.605,2.602,2.604,2.607,2.611,2.617,2.62,2.615,2.625,2.64,2.654,2.666,2.674,2.68,2.684,2.686,2.693,2.701,2.709,2.715,2.717,2.723,2.734,2.744,2.758,2.768,2.771,2.768,2.764,2.766,2.764,2.764,2.76,2.762,2.764,2.766,2.768,2.773,2.777,2.773,2.768,2.785,2.793,2.78,2.77,2.766,2.77,2.766,2.758,2.752,2.738,2.713,2.676,2.596,2.428,2.043,1.601,1.343,1.298,1.274,1.25,1.235,1.217,1.205,1.206,1.212,1.218,1.238
3.438,3.453,3.5,3.617,3.686,3.732,3.729,3.73,3.742,3.764,3.775,3.771,3.775,3.793,3.785,3.773,3.77,3.76,3.758,3.744,3.736,3.744,3.746,3.746,3.736,3.746,3.752,3.752,3.764,3.76,3.738,3.72,3.71,3.684,3.639,3.57,3.48,3.377,3.238,3.133,3.045,3.014,2.998,2.988,2.967,2.96,2.963,2.969,2.975,2.98,2.99,2.996,3.002,3.008,3.016,3.025,3.035,3.043,3.047,3.055,3.062,3.068,3.076,3.086,3.092,3.1,3.105,3.115,3.125,3.13,3.137,3.148,3.158,3.166,3.172,3.178,3.182,3.188,3.193,3.2,3.205,3.209,3.213,3.219,3.223,3.229,3.232,3.238,3.242,3.246,3.25,3.258,3.268,3.273,3.28,3.287,3.293,3.299,3.307,3.316,3.32,3.328,3.34,3.348,3.355,3.363,3.37,3.375,3.379,3.377,3.38,3.389,3.393,3.39,3.395,3.402,3.416,3.422,3.426,3.432,3.44,3.445,3.453,3.459,3.467,3.47,3.475,3.48,3.488,3.494,3.502,3.508,3.518,3.523,3.531,3.543,3.557,3.568,3.582,3.584,3.605,3.605,3.598,3.588,3.596,3.666,3.809,4.1,4.504,5.023,5.477,5.93,6.473,7.016,7.305,7.258,7.258,7.258,7.258,7.258,7.258,7.258,7.258,7.258,7.258,7.258,7.258,7.258,7.258,7.258,7.258,7.258,7.258,7.258,7.258,7.258,7.258,7.258,7.258,7.258,7.258,7.258,7.258,7.258,7.258,7.258,7.258,7.258,7.258,7.258,7.273,7.176,6.688,6.12,5.684,5.395,5.21,5.137,5.11,5.11,5.11,5.105,5.13,5.18,5.26,5.363,5.457,5.504,5.496,5.434,5.332,5.215,5.094,4.926,4.73,4.562,4.406,4.27,4.145,4.023,3.88,3.799,3.719,3.633,3.559,3.512,3.486,3.467,3.46,3.457,3.45,3.441,3.436,3.428,3.426,3.42,3.416,3.414,3.414,3.406,3.398,3.395,3.385,3.373,3.363,3.35,3.328,3.305,3.28,3.252,3.225,3.201,3.18,3.158,3.135,3.111,3.09,3.066,3.04,3.021,3.002,2.984,2.967,2.947,2.926,2.906,2.885,2.861,2.842,2.82,2.803,2.79,2.768,2.746,2.72,2.69,2.656,2.621,2.586,2.559,2.533,2.521,2.52,2.523,2.533,2.537,2.537,2.531,2.53,2.521,2.51,2.502,2.494,2.486,2.477,2.469,2.46,2.455,2.45,2.441,2.436,2.43,2.428,2.42,2.416,2.416,2.414,2.412,2.408,2.41,2.414,2.441,2.473,2.5,2.523,2.537,2.543,2.545,2.547,2.553,2.557,2.557,2.557,2.557,2.559,2.562,2.562,2.56,2.562,2.56,2.562,2.562,2.564,2.568,2.57,2.574,2.578,2.582,2.59,2.592,2.594,2.594,2.598,2.602,2.602,2.602,2.604,2.604,2.602,2.607,2.607,2.61,2.61,2.611,2.611,2.617,2.621,2.623,2.621,2.617,2.617,2.615,2.613,2.611,2.613,2.623,2.627,2.623,2.621,2.617,2.613,2.611,2.605,2.607,2.605,2.607,2.611,2.617,2.621,2.62,2.629,2.645,2.66,2.672,2.678,2.684,2.69,2.691,2.697,2.703,2.71,2.717,2.719,2.723,2.732,2.744,2.758,2.768,2.771,2.768,2.764,2.766,2.764,2.764,2.762,2.762,2.764,2.766,2.77,2.777,2.78,2.775,2.77,2.787,2.793,2.78,2.77,2.764,2.77,2.768,2.756,2.75,2.738,2.713,2.678,2.6,2.441,2.064,1.612,1.348,1.299,1.275,1.252,1.235,1.218,1.205,1.206,1.212,1.217,1.237
3.44,3.455,3.498,3.615,3.684,3.725,3.727,3.732,3.742,3.758,3.773,3.771,3.777,3.793,3.787,3.777,3.775,3.768,3.762,3.752,3.74,3.746,3.748,3.744,3.742,3.746,3.754,3.756,3.766,3.764,3.742,3.725,3.717,3.686,3.645,3.576,3.482,3.38,3.242,3.135,3.047,3.014,2.998,2.988,2.965,2.959,2.96,2.967,2.973,2.977,2.984,2.994,2.998,3.004,3.014,3.023,3.033,3.04,3.045,3.053,3.059,3.068,3.074,3.084,3.09,3.094,3.104,3.113,3.12,3.127,3.133,3.145,3.158,3.162,3.168,3.176,3.184,3.186,3.19,3.195,3.201,3.207,3.209,3.219,3.225,3.227,3.23,3.236,3.24,3.244,3.248,3.256,3.264,3.271,3.277,3.285,3.291,3.299,3.303,3.314,3.32,3.326,3.34,3.346,3.355,3.361,3.365,3.373,3.375,3.375,3.379,3.385,3.387,3.389,3.393,3.396,3.41,3.418,3.424,3.428,3.436,3.441,3.45,3.455,3.463,3.469,3.47,3.477,3.484,3.492,3.498,3.504,3.514,3.521,3.531,3.54,3.559,3.568,3.582,3.588,3.605,3.605,3.592,3.588,3.6,3.668,3.8,4.113,4.508,4.965,5.39,5.82,6.3,6.81,7.19,7.305,7.258,7.258,7.258,7.258,7.258,7.258,7.258,7.258,7.258,7.258,7.258,7.258,7.258,7.258,7.258,7.258,7.258,7.258,7.258,7.258,7.258,7.258,7.258,7.258,7.258,7.258,7.258,7.266,7.273,7.277,7.277,7.28,7.29,7.3,7.207,6.906,6.44,5.97,5.637,5.38,5.22,5.152,5.133,5.117,5.098,5.074,5.066,5.11,5.184,5.285,5.387,5.43,5.418,5.355,5.254,5.14,5.03,4.883,4.72,4.547,4.406,4.273,4.137,4.016,3.883,3.793,3.72,3.639,3.564,3.518,3.49,3.47,3.467,3.457,3.45,3.441,3.436,3.432,3.426,3.422,3.42,3.416,3.414,3.406,3.398,3.395,3.383,3.373,3.363,3.348,3.328,3.303,3.28,3.254,3.225,3.201,3.178,3.156,3.137,3.111,3.09,3.066,3.043,3.02,3.002,2.984,2.969,2.947,2.928,2.908,2.885,2.863,2.842,2.816,2.797,2.787,2.766,2.744,2.719,2.686,2.652,2.617,2.584,2.555,2.533,2.521,2.52,2.523,2.533,2.537,2.537,2.531,2.53,2.521,2.51,2.502,2.494,2.486,2.477,2.467,2.459,2.455,2.45,2.443,2.436,2.43,2.428,2.42,2.416,2.416,2.412,2.41,2.41,2.412,2.422,2.445,2.479,2.504,2.527,2.541,2.545,2.547,2.55,2.553,2.559,2.56,2.559,2.559,2.562,2.564,2.564,2.562,2.562,2.562,2.564,2.566,2.57,2.57,2.574,2.578,2.582,2.586,2.592,2.596,2.598,2.598,2.602,2.602,2.602,2.604,2.605,2.605,2.604,2.605,2.61,2.61,2.61,2.611,2.615,2.62,2.623,2.625,2.623,2.62,2.62,2.617,2.615,2.613,2.615,2.623,2.627,2.623,2.623,2.62,2.62,2.613,2.61,2.607,2.61,2.61,2.613,2.62,2.623,2.623,2.635,2.648,2.662,2.676,2.682,2.688,2.691,2.693,2.7,2.705,2.713,2.719,2.72,2.725,2.732,2.744,2.758,2.768,2.771,2.768,2.764,2.766,2.766,2.764,2.764,2.764,2.768,2.768,2.771,2.78,2.781,2.775,2.771,2.785,2.795,2.783,2.771,2.766,2.77,2.766,2.756,2.748,2.738,2.713,2.68,2.605,2.453,2.082,1.62,1.351,1.301,1.276,1.252,1.237,1.217,1.205,1.206,1.212,1.216,1.236
3.447,3.463,3.504,3.615,3.684,3.729,3.73,3.732,3.746,3.76,3.777,3.777,3.79,3.807,3.8,3.787,3.783,3.783,3.777,3.764,3.756,3.758,3.762,3.758,3.748,3.758,3.766,3.762,3.773,3.77,3.75,3.729,3.719,3.693,3.65,3.584,3.494,3.393,3.248,3.145,3.05,3.016,3.004,2.988,2.965,2.957,2.96,2.963,2.969,2.975,2.984,2.992,2.996,3.002,3.012,3.023,3.031,3.035,3.041,3.049,3.057,3.062,3.068,3.078,3.088,3.092,3.102,3.11,3.12,3.123,3.133,3.143,3.156,3.16,3.168,3.174,3.18,3.184,3.19,3.193,3.2,3.205,3.207,3.215,3.223,3.225,3.227,3.234,3.238,3.244,3.248,3.256,3.262,3.268,3.277,3.285,3.291,3.295,3.305,3.314,3.318,3.324,3.34,3.346,3.355,3.36,3.365,3.373,3.371,3.371,3.373,3.38,3.385,3.383,3.383,3.395,3.406,3.412,3.416,3.422,3.432,3.44,3.445,3.453,3.46,3.469,3.47,3.475,3.477,3.484,3.49,3.5,3.512,3.52,3.525,3.54,3.557,3.572,3.582,3.586,3.6,3.6,3.59,3.582,3.596,3.664,3.783,4.098,4.457,4.844,5.207,5.59,6.01,6.434,6.8,7.1,7.266,7.27,7.258,7.258,7.258,7.258,7.258,7.258,7.258,7.258,7.258,7.258,7.258,7.258,7.258,7.258,7.258,7.258,7.258,7.26,7.26,7.26,7.266,7.27,7.273,7.277,7.29,7.22,7.168,7.133,7.113,7.094,7.047,6.934,6.707,6.395,6.027,5.715,5.473,5.26,5.15,5.105,5.09,5.07,5.035,5.0,4.984,5.016,5.098,5.21,5.32,5.36,5.35,5.285,5.188,5.074,4.973,4.84,4.684,4.54,4.4,4.273,4.14,4.016,3.896,3.795,3.73,3.656,3.578,3.53,3.498,3.479,3.473,3.463,3.453,3.441,3.436,3.434,3.428,3.424,3.422,3.42,3.414,3.406,3.402,3.395,3.387,3.375,3.365,3.348,3.332,3.307,3.28,3.254,3.23,3.203,3.182,3.158,3.137,3.117,3.094,3.068,3.045,3.023,3.008,2.99,2.973,2.951,2.928,2.91,2.889,2.865,2.842,2.82,2.799,2.785,2.766,2.74,2.717,2.684,2.648,2.615,2.584,2.553,2.533,2.521,2.521,2.523,2.533,2.537,2.537,2.535,2.53,2.523,2.514,2.504,2.494,2.486,2.477,2.467,2.459,2.455,2.45,2.443,2.438,2.434,2.428,2.42,2.416,2.416,2.412,2.412,2.412,2.414,2.43,2.453,2.486,2.512,2.533,2.545,2.547,2.547,2.553,2.559,2.56,2.56,2.562,2.562,2.562,2.57,2.57,2.57,2.566,2.566,2.57,2.57,2.572,2.574,2.578,2.582,2.586,2.59,2.596,2.598,2.602,2.602,2.602,2.602,2.605,2.605,2.605,2.607,2.607,2.61,2.611,2.611,2.613,2.617,2.62,2.623,2.627,2.629,2.627,2.623,2.623,2.623,2.621,2.617,2.621,2.627,2.635,2.629,2.627,2.625,2.623,2.62,2.617,2.62,2.617,2.62,2.623,2.629,2.633,2.633,2.64,2.656,2.672,2.684,2.688,2.691,2.695,2.697,2.7,2.707,2.715,2.723,2.725,2.723,2.734,2.746,2.758,2.766,2.771,2.768,2.762,2.766,2.766,2.764,2.764,2.766,2.77,2.771,2.773,2.78,2.783,2.78,2.773,2.79,2.799,2.783,2.773,2.77,2.773,2.77,2.758,2.752,2.738,2.715,2.684,2.607,2.463,2.102,1.631,1.352,1.301,1.277,1.252,1.236,1.217,1.205,1.205,1.211,1.215,1.236
3.455,3.47,3.516,3.617,3.684,3.729,3.73,3.738,3.746,3.768,3.791,3.78,3.795,3.812,3.807,3.795,3.797,3.799,3.787,3.777,3.766,3.77,3.773,3.768,3.764,3.768,3.771,3.77,3.783,3.775,3.76,3.734,3.719,3.693,3.658,3.592,3.504,3.402,3.264,3.15,3.053,3.018,3.004,2.988,2.965,2.957,2.959,2.96,2.969,2.97,2.979,2.988,2.994,3.002,3.01,3.021,3.027,3.033,3.04,3.045,3.05,3.059,3.068,3.074,3.082,3.092,3.096,3.107,3.113,3.12,3.127,3.139,3.15,3.16,3.166,3.172,3.178,3.184,3.186,3.19,3.195,3.201,3.207,3.213,3.22,3.22,3.227,3.232,3.238,3.244,3.248,3.256,3.262,3.268,3.277,3.285,3.291,3.295,3.3,3.31,3.316,3.324,3.34,3.346,3.355,3.36,3.365,3.37,3.371,3.37,3.371,3.377,3.379,3.379,3.38,3.389,3.398,3.41,3.414,3.42,3.428,3.434,3.441,3.45,3.457,3.465,3.467,3.469,3.477,3.482,3.488,3.496,3.504,3.518,3.525,3.535,3.557,3.572,3.578,3.582,3.592,3.592,3.582,3.576,3.588,3.648,3.762,4.04,4.33,4.64,4.945,5.258,5.617,5.96,6.25,6.527,6.797,7.06,7.22,7.242,7.254,7.258,7.258,7.25,7.242,7.234,7.227,7.223,7.223,7.223,7.227,7.227,7.227,7.223,7.21,7.188,7.176,7.164,7.11,7.047,6.96,6.863,6.793,6.72,6.652,6.62,6.574,6.504,6.414,6.258,6.06,5.855,5.652,5.453,5.26,5.13,5.05,5.027,5.01,4.992,4.953,4.91,4.895,4.93,5.016,5.13,5.242,5.285,5.28,5.215,5.12,5.008,4.906,4.785,4.645,4.508,4.383,4.266,4.15,4.02,3.906,3.8,3.734,3.67,3.602,3.537,3.506,3.486,3.477,3.465,3.455,3.45,3.441,3.434,3.43,3.426,3.424,3.42,3.416,3.414,3.404,3.398,3.39,3.375,3.37,3.35,3.334,3.309,3.283,3.26,3.23,3.207,3.182,3.16,3.139,3.117,3.094,3.07,3.047,3.025,3.01,2.994,2.975,2.953,2.932,2.912,2.889,2.865,2.844,2.82,2.797,2.787,2.762,2.74,2.71,2.68,2.645,2.611,2.58,2.553,2.533,2.521,2.521,2.523,2.533,2.541,2.537,2.535,2.531,2.527,2.514,2.502,2.496,2.486,2.477,2.467,2.459,2.455,2.45,2.443,2.436,2.43,2.428,2.42,2.416,2.416,2.412,2.412,2.414,2.42,2.434,2.46,2.49,2.518,2.54,2.547,2.55,2.55,2.553,2.559,2.562,2.562,2.562,2.562,2.566,2.572,2.572,2.57,2.57,2.57,2.57,2.572,2.574,2.578,2.582,2.586,2.59,2.594,2.598,2.602,2.602,2.602,2.605,2.605,2.605,2.605,2.607,2.61,2.61,2.611,2.615,2.615,2.617,2.62,2.623,2.629,2.635,2.635,2.63,2.627,2.629,2.629,2.625,2.623,2.623,2.63,2.637,2.633,2.633,2.629,2.627,2.623,2.623,2.623,2.627,2.633,2.637,2.639,2.645,2.646,2.654,2.666,2.68,2.691,2.693,2.695,2.7,2.7,2.703,2.709,2.719,2.723,2.727,2.729,2.736,2.746,2.758,2.768,2.771,2.768,2.766,2.768,2.768,2.766,2.764,2.768,2.771,2.773,2.775,2.783,2.785,2.78,2.773,2.791,2.799,2.787,2.775,2.771,2.777,2.771,2.762,2.752,2.744,2.72,2.688,2.617,2.477,2.12,1.643,1.355,1.302,1.278,1.253,1.235,1.217,1.205,1.205,1.21,1.215,1.235
3.469,3.48,3.527,3.62,3.684,3.729,3.73,3.74,3.75,3.771,3.797,3.79,3.799,3.816,3.812,3.803,3.807,3.81,3.803,3.785,3.775,3.78,3.783,3.775,3.773,3.775,3.777,3.78,3.795,3.785,3.768,3.74,3.72,3.701,3.662,3.598,3.514,3.412,3.277,3.156,3.062,3.021,3.006,2.988,2.965,2.957,2.959,2.96,2.963,2.969,2.977,2.984,2.992,2.996,3.006,3.016,3.025,3.03,3.035,3.041,3.049,3.057,3.064,3.072,3.08,3.088,3.094,3.104,3.113,3.117,3.123,3.137,3.148,3.156,3.16,3.168,3.176,3.18,3.186,3.19,3.195,3.197,3.201,3.213,3.219,3.22,3.225,3.232,3.238,3.242,3.248,3.256,3.262,3.268,3.275,3.285,3.293,3.293,3.3,3.31,3.316,3.324,3.336,3.346,3.352,3.357,3.361,3.367,3.37,3.37,3.37,3.375,3.377,3.377,3.377,3.387,3.396,3.404,3.412,3.418,3.426,3.436,3.443,3.45,3.457,3.463,3.467,3.469,3.47,3.479,3.484,3.492,3.5,3.512,3.521,3.533,3.55,3.568,3.576,3.576,3.584,3.586,3.576,3.572,3.58,3.639,3.74,3.943,4.145,4.383,4.637,4.92,5.203,5.484,5.723,5.934,6.133,6.367,6.625,6.895,7.055,7.117,7.086,6.984,6.875,6.78,6.676,6.617,6.605,6.633,6.676,6.69,6.688,6.66,6.652,6.664,6.68,6.688,6.66,6.594,6.508,6.426,6.35,6.285,6.223,6.176,6.12,6.043,5.938,5.812,5.695,5.586,5.457,5.3,5.16,5.043,4.99,4.97,4.95,4.926,4.887,4.848,4.84,4.88,4.965,5.066,5.168,5.207,5.2,5.137,5.047,4.94,4.836,4.723,4.59,4.47,4.36,4.25,4.137,4.02,3.912,3.818,3.74,3.678,3.613,3.553,3.514,3.492,3.482,3.47,3.457,3.45,3.441,3.436,3.432,3.428,3.426,3.422,3.42,3.412,3.406,3.398,3.39,3.38,3.37,3.352,3.334,3.309,3.285,3.26,3.236,3.207,3.186,3.162,3.14,3.12,3.094,3.07,3.05,3.031,3.014,2.994,2.979,2.957,2.932,2.914,2.893,2.871,2.844,2.82,2.799,2.783,2.76,2.736,2.709,2.676,2.643,2.611,2.58,2.553,2.533,2.521,2.52,2.525,2.533,2.541,2.54,2.535,2.531,2.525,2.516,2.504,2.496,2.486,2.477,2.467,2.459,2.455,2.447,2.441,2.436,2.432,2.428,2.42,2.416,2.412,2.414,2.412,2.414,2.42,2.44,2.467,2.494,2.521,2.54,2.55,2.55,2.553,2.555,2.559,2.562,2.562,2.562,2.566,2.568,2.574,2.576,2.572,2.572,2.572,2.576,2.576,2.578,2.58,2.584,2.586,2.59,2.596,2.602,2.602,2.605,2.605,2.605,2.607,2.61,2.61,2.611,2.611,2.613,2.615,2.617,2.62,2.62,2.623,2.625,2.633,2.637,2.637,2.637,2.633,2.633,2.633,2.629,2.623,2.623,2.63,2.635,2.635,2.63,2.63,2.627,2.625,2.625,2.63,2.637,2.639,2.643,2.648,2.654,2.656,2.666,2.678,2.688,2.697,2.7,2.7,2.703,2.703,2.705,2.71,2.72,2.729,2.732,2.73,2.738,2.746,2.758,2.768,2.771,2.77,2.768,2.77,2.77,2.768,2.768,2.77,2.773,2.775,2.78,2.783,2.787,2.781,2.775,2.791,2.803,2.79,2.777,2.775,2.781,2.777,2.764,2.756,2.744,2.723,2.693,2.623,2.49,2.139,1.654,1.358,1.304,1.279,1.253,1.234,1.217,1.205,1.205,1.209,1.214,1.235
3.475,3.488,3.533,3.621,3.684,3.729,3.73,3.74,3.752,3.773,3.797,3.797,3.797,3.82,3.814,3.805,3.809,3.814,3.812,3.791,3.777,3.783,3.787,3.781,3.777,3.78,3.777,3.781,3.793,3.785,3.766,3.74,3.719,3.703,3.668,3.605,3.523,3.424,3.29,3.162,3.068,3.025,3.01,2.99,2.967,2.957,2.959,2.96,2.963,2.967,2.977,2.984,2.99,2.996,3.006,3.016,3.023,3.027,3.031,3.04,3.047,3.055,3.062,3.07,3.078,3.086,3.092,3.104,3.11,3.115,3.121,3.137,3.148,3.156,3.162,3.168,3.176,3.18,3.186,3.19,3.193,3.195,3.201,3.21,3.215,3.22,3.223,3.232,3.238,3.242,3.246,3.254,3.264,3.27,3.275,3.285,3.291,3.293,3.3,3.31,3.316,3.324,3.34,3.348,3.355,3.361,3.365,3.37,3.371,3.37,3.371,3.379,3.379,3.379,3.383,3.393,3.404,3.414,3.42,3.426,3.436,3.443,3.45,3.457,3.465,3.473,3.475,3.473,3.48,3.486,3.49,3.496,3.506,3.514,3.53,3.537,3.557,3.574,3.58,3.58,3.59,3.592,3.582,3.576,3.584,3.643,3.74,3.877,4.043,4.18,4.367,4.62,4.88,5.105,5.297,5.484,5.645,5.82,6.055,6.332,6.53,6.617,6.598,6.508,6.418,6.332,6.23,6.16,6.133,6.152,6.203,6.254,6.3,6.336,6.363,6.39,6.414,6.406,6.375,6.324,6.258,6.19,6.117,6.043,5.984,5.95,5.906,5.84,5.766,5.68,5.613,5.547,5.445,5.3,5.145,5.027,4.957,4.93,4.9,4.875,4.84,4.81,4.8,4.83,4.883,4.96,5.043,5.082,5.086,5.03,4.953,4.844,4.74,4.633,4.516,4.41,4.312,4.22,4.113,4.008,3.914,3.828,3.746,3.68,3.617,3.562,3.521,3.498,3.482,3.47,3.459,3.45,3.441,3.434,3.43,3.424,3.424,3.42,3.416,3.41,3.402,3.393,3.385,3.373,3.361,3.346,3.33,3.307,3.283,3.256,3.23,3.207,3.182,3.16,3.139,3.117,3.094,3.07,3.05,3.03,3.014,2.996,2.979,2.955,2.934,2.914,2.893,2.871,2.846,2.822,2.803,2.787,2.762,2.738,2.713,2.678,2.643,2.611,2.582,2.555,2.537,2.527,2.525,2.53,2.537,2.545,2.543,2.54,2.535,2.527,2.52,2.508,2.498,2.49,2.48,2.47,2.463,2.459,2.451,2.445,2.44,2.436,2.428,2.422,2.416,2.418,2.416,2.416,2.418,2.422,2.443,2.47,2.498,2.521,2.54,2.55,2.55,2.553,2.557,2.56,2.562,2.564,2.568,2.568,2.57,2.572,2.576,2.576,2.572,2.574,2.576,2.576,2.578,2.58,2.584,2.588,2.59,2.596,2.6,2.604,2.605,2.605,2.605,2.611,2.611,2.611,2.611,2.613,2.615,2.617,2.62,2.62,2.62,2.623,2.627,2.635,2.637,2.637,2.635,2.633,2.633,2.633,2.63,2.625,2.623,2.63,2.633,2.633,2.63,2.63,2.629,2.63,2.63,2.635,2.639,2.643,2.646,2.652,2.658,2.664,2.672,2.682,2.691,2.7,2.701,2.703,2.705,2.705,2.709,2.715,2.723,2.73,2.736,2.732,2.738,2.748,2.758,2.768,2.771,2.77,2.768,2.77,2.771,2.77,2.768,2.771,2.775,2.775,2.777,2.787,2.79,2.781,2.777,2.793,2.8,2.79,2.777,2.78,2.781,2.78,2.768,2.762,2.748,2.729,2.695,2.633,2.5,2.156,1.666,1.361,1.305,1.279,1.253,1.234,1.217,1.203,1.204,1.208,1.213,1.235
3.479,3.49,3.54,3.621,3.684,3.729,3.73,3.738,3.75,3.777,3.8,3.799,3.805,3.822,3.82,3.81,3.816,3.822,3.818,3.799,3.781,3.781,3.785,3.78,3.78,3.783,3.781,3.783,3.795,3.783,3.764,3.74,3.719,3.701,3.67,3.611,3.535,3.438,3.309,3.17,3.076,3.03,3.012,2.992,2.967,2.957,2.959,2.96,2.96,2.965,2.975,2.984,2.988,2.996,3.006,3.014,3.021,3.027,3.031,3.04,3.043,3.053,3.06,3.068,3.076,3.082,3.094,3.1,3.11,3.115,3.121,3.135,3.146,3.156,3.162,3.168,3.174,3.18,3.186,3.188,3.191,3.197,3.201,3.209,3.215,3.22,3.225,3.232,3.238,3.244,3.246,3.256,3.264,3.271,3.28,3.285,3.291,3.295,3.303,3.31,3.314,3.324,3.338,3.35,3.357,3.363,3.367,3.371,3.373,3.371,3.373,3.379,3.38,3.383,3.387,3.395,3.41,3.418,3.424,3.43,3.441,3.447,3.453,3.46,3.47,3.479,3.48,3.48,3.486,3.488,3.494,3.502,3.51,3.52,3.531,3.545,3.56,3.58,3.586,3.586,3.594,3.594,3.59,3.582,3.592,3.646,3.744,3.857,3.99,4.12,4.24,4.434,4.65,4.844,5.01,5.16,5.297,5.457,5.676,5.965,6.2,6.33,6.348,6.29,6.207,6.11,5.996,5.918,5.887,5.91,5.965,6.04,6.098,6.156,6.21,6.246,6.266,6.254,6.227,6.19,6.145,6.09,6.016,5.938,5.883,5.855,5.824,5.785,5.75,5.727,5.67,5.613,5.51,5.36,5.184,5.027,4.926,4.88,4.844,4.816,4.78,4.73,4.72,4.723,4.742,4.773,4.793,4.805,4.79,4.75,4.69,4.62,4.543,4.473,4.39,4.316,4.24,4.156,4.066,3.975,3.898,3.828,3.754,3.68,3.617,3.564,3.523,3.502,3.482,3.47,3.457,3.447,3.441,3.434,3.428,3.422,3.422,3.418,3.414,3.406,3.396,3.39,3.379,3.37,3.357,3.34,3.326,3.305,3.28,3.254,3.23,3.207,3.182,3.16,3.139,3.117,3.094,3.07,3.05,3.03,3.014,2.996,2.979,2.957,2.936,2.914,2.895,2.873,2.848,2.82,2.807,2.787,2.762,2.738,2.71,2.678,2.645,2.611,2.584,2.557,2.541,2.53,2.531,2.533,2.545,2.547,2.547,2.543,2.54,2.531,2.523,2.512,2.5,2.492,2.484,2.473,2.467,2.46,2.455,2.447,2.441,2.436,2.432,2.426,2.42,2.418,2.418,2.418,2.42,2.426,2.447,2.475,2.5,2.521,2.541,2.55,2.553,2.555,2.56,2.562,2.566,2.57,2.57,2.572,2.572,2.574,2.578,2.578,2.578,2.58,2.578,2.58,2.58,2.582,2.584,2.59,2.59,2.598,2.604,2.605,2.605,2.605,2.61,2.611,2.611,2.611,2.613,2.615,2.617,2.62,2.62,2.62,2.621,2.623,2.627,2.633,2.637,2.637,2.635,2.633,2.637,2.637,2.63,2.629,2.627,2.635,2.637,2.635,2.635,2.635,2.635,2.64,2.643,2.645,2.645,2.646,2.652,2.658,2.664,2.67,2.68,2.688,2.695,2.701,2.703,2.709,2.707,2.707,2.71,2.719,2.72,2.73,2.738,2.734,2.742,2.75,2.758,2.768,2.77,2.768,2.768,2.77,2.77,2.768,2.768,2.771,2.773,2.775,2.777,2.787,2.79,2.783,2.777,2.795,2.8,2.791,2.781,2.785,2.79,2.785,2.77,2.764,2.756,2.732,2.703,2.646,2.508,2.17,1.678,1.365,1.307,1.28,1.252,1.234,1.215,1.202,1.203,1.208,1.212,1.235
3.486,3.498,3.545,3.621,3.684,3.729,3.73,3.738,3.752,3.78,3.8,3.803,3.807,3.826,3.824,3.812,3.824,3.828,3.828,3.807,3.781,3.787,3.785,3.785,3.781,3.785,3.783,3.781,3.793,3.783,3.762,3.74,3.719,3.705,3.68,3.623,3.549,3.453,3.322,3.178,3.084,3.033,3.016,2.994,2.969,2.959,2.96,2.96,2.959,2.965,2.975,2.984,2.988,2.994,3.004,3.012,3.018,3.023,3.027,3.037,3.043,3.049,3.057,3.068,3.072,3.082,3.09,3.098,3.107,3.115,3.121,3.133,3.145,3.152,3.162,3.168,3.174,3.178,3.182,3.186,3.191,3.197,3.201,3.209,3.215,3.217,3.223,3.232,3.238,3.244,3.248,3.256,3.264,3.273,3.28,3.285,3.291,3.295,3.3,3.312,3.32,3.326,3.338,3.352,3.363,3.365,3.37,3.371,3.373,3.373,3.377,3.383,3.385,3.385,3.389,3.396,3.414,3.422,3.426,3.436,3.445,3.451,3.459,3.465,3.475,3.486,3.482,3.486,3.488,3.494,3.502,3.506,3.512,3.523,3.537,3.547,3.568,3.584,3.586,3.586,3.596,3.6,3.594,3.592,3.602,3.656,3.746,3.863,4.01,4.12,4.246,4.42,4.57,4.7,4.836,4.957,5.08,5.227,5.445,5.75,5.996,6.14,6.18,6.164,6.117,6.05,5.973,5.918,5.887,5.9,5.938,5.98,6.035,6.09,6.133,6.164,6.188,6.188,6.164,6.125,6.062,6.004,5.934,5.87,5.83,5.805,5.793,5.79,5.785,5.78,5.73,5.652,5.535,5.375,5.188,4.992,4.86,4.797,4.754,4.71,4.652,4.6,4.56,4.527,4.496,4.44,4.367,4.258,4.18,4.14,4.137,4.145,4.15,4.145,4.133,4.11,4.074,4.027,3.979,3.922,3.865,3.81,3.748,3.674,3.613,3.56,3.523,3.5,3.482,3.469,3.457,3.447,3.441,3.434,3.428,3.422,3.42,3.416,3.414,3.4,3.395,3.385,3.373,3.361,3.35,3.336,3.318,3.3,3.28,3.252,3.229,3.203,3.178,3.156,3.137,3.117,3.094,3.07,3.049,3.03,3.014,2.996,2.977,2.957,2.938,2.916,2.895,2.873,2.848,2.83,2.81,2.79,2.766,2.738,2.71,2.678,2.645,2.615,2.586,2.56,2.547,2.535,2.535,2.54,2.547,2.549,2.55,2.547,2.543,2.535,2.525,2.516,2.506,2.498,2.486,2.475,2.469,2.463,2.455,2.45,2.445,2.44,2.436,2.426,2.42,2.42,2.42,2.42,2.424,2.43,2.45,2.477,2.504,2.525,2.541,2.55,2.555,2.56,2.562,2.568,2.572,2.572,2.574,2.576,2.576,2.58,2.58,2.58,2.58,2.58,2.582,2.58,2.58,2.584,2.588,2.59,2.592,2.598,2.604,2.607,2.607,2.61,2.611,2.611,2.613,2.615,2.615,2.62,2.62,2.62,2.623,2.623,2.623,2.625,2.629,2.633,2.637,2.637,2.637,2.635,2.637,2.637,2.637,2.633,2.63,2.637,2.643,2.64,2.643,2.639,2.645,2.65,2.65,2.652,2.652,2.652,2.658,2.664,2.672,2.678,2.684,2.69,2.7,2.703,2.709,2.709,2.709,2.709,2.715,2.719,2.725,2.732,2.738,2.736,2.742,2.75,2.758,2.766,2.768,2.768,2.766,2.77,2.768,2.768,2.768,2.77,2.773,2.775,2.777,2.787,2.791,2.783,2.78,2.797,2.803,2.791,2.787,2.79,2.795,2.79,2.771,2.764,2.762,2.74,2.713,2.66,2.52,2.186,1.693,1.369,1.309,1.28,1.252,1.232,1.214,1.202,1.203,1.208,1.212,1.235
3.496,3.504,3.547,3.621,3.684,3.729,3.73,3.732,3.752,3.78,3.797,3.803,3.807,3.83,3.824,3.814,3.824,3.836,3.828,3.816,3.787,3.79,3.795,3.787,3.785,3.791,3.791,3.781,3.791,3.783,3.762,3.74,3.72,3.713,3.688,3.637,3.562,3.469,3.342,3.184,3.094,3.037,3.016,2.994,2.967,2.957,2.959,2.959,2.959,2.959,2.97,2.979,2.984,2.992,2.996,3.008,3.016,3.023,3.027,3.035,3.041,3.043,3.055,3.062,3.07,3.08,3.088,3.096,3.104,3.111,3.12,3.13,3.145,3.15,3.16,3.168,3.172,3.178,3.182,3.186,3.191,3.195,3.201,3.209,3.215,3.217,3.223,3.23,3.238,3.244,3.248,3.256,3.268,3.273,3.281,3.287,3.291,3.299,3.305,3.312,3.32,3.328,3.342,3.352,3.365,3.37,3.37,3.375,3.377,3.373,3.379,3.383,3.385,3.385,3.389,3.396,3.414,3.422,3.426,3.436,3.445,3.453,3.459,3.467,3.475,3.486,3.482,3.486,3.488,3.496,3.502,3.506,3.512,3.523,3.537,3.547,3.57,3.586,3.594,3.586,3.596,3.6,3.594,3.592,3.604,3.662,3.752,3.904,4.04,4.176,4.34,4.492,4.59,4.66,4.754,4.85,4.96,5.105,5.332,5.613,5.848,5.984,6.04,6.055,6.047,6.01,5.973,5.945,5.926,5.92,5.94,5.97,5.99,6.027,6.062,6.074,6.086,6.086,6.066,6.023,5.957,5.887,5.824,5.754,5.72,5.7,5.7,5.715,5.72,5.684,5.594,5.496,5.387,5.26,5.09,4.867,4.72,4.633,4.566,4.504,4.43,4.35,4.285,4.227,4.15,3.998,3.895,3.81,3.732,3.701,3.707,3.736,3.766,3.787,3.799,3.814,3.83,3.834,3.824,3.816,3.79,3.764,3.723,3.66,3.605,3.557,3.523,3.494,3.479,3.467,3.455,3.45,3.441,3.434,3.428,3.424,3.424,3.422,3.414,3.406,3.395,3.385,3.373,3.36,3.346,3.334,3.318,3.3,3.28,3.26,3.23,3.207,3.184,3.162,3.145,3.123,3.1,3.078,3.055,3.035,3.018,3.002,2.982,2.96,2.943,2.92,2.898,2.877,2.855,2.834,2.81,2.79,2.766,2.74,2.71,2.682,2.648,2.615,2.59,2.562,2.547,2.537,2.537,2.543,2.549,2.55,2.55,2.547,2.547,2.54,2.531,2.52,2.508,2.498,2.486,2.479,2.47,2.467,2.46,2.453,2.447,2.441,2.434,2.428,2.424,2.42,2.42,2.424,2.426,2.434,2.453,2.479,2.504,2.525,2.541,2.55,2.555,2.56,2.562,2.568,2.572,2.572,2.574,2.58,2.58,2.582,2.582,2.582,2.582,2.584,2.586,2.586,2.584,2.588,2.592,2.592,2.596,2.602,2.607,2.61,2.61,2.611,2.611,2.615,2.615,2.617,2.62,2.62,2.623,2.623,2.623,2.623,2.625,2.627,2.629,2.635,2.639,2.639,2.637,2.637,2.639,2.639,2.639,2.637,2.639,2.646,2.65,2.648,2.648,2.646,2.648,2.652,2.652,2.652,2.654,2.66,2.666,2.67,2.678,2.686,2.69,2.697,2.703,2.709,2.71,2.713,2.713,2.715,2.717,2.72,2.727,2.734,2.738,2.738,2.744,2.75,2.76,2.768,2.77,2.768,2.766,2.77,2.768,2.766,2.766,2.77,2.771,2.771,2.777,2.787,2.79,2.783,2.781,2.799,2.807,2.793,2.79,2.793,2.797,2.793,2.775,2.766,2.762,2.74,2.715,2.676,2.535,2.201,1.709,1.375,1.311,1.281,1.252,1.232,1.214,1.202,1.203,1.208,1.212,1.235
3.506,3.52,3.547,3.62,3.678,3.727,3.729,3.732,3.756,3.775,3.795,3.797,3.803,3.826,3.822,3.812,3.824,3.834,3.832,3.816,3.795,3.793,3.799,3.795,3.795,3.795,3.791,3.783,3.791,3.785,3.766,3.742,3.73,3.729,3.703,3.654,3.582,3.492,3.36,3.2,3.104,3.037,3.018,2.994,2.967,2.957,2.959,2.955,2.953,2.955,2.965,2.977,2.98,2.986,2.996,3.002,3.01,3.016,3.021,3.027,3.037,3.043,3.047,3.06,3.066,3.074,3.082,3.094,3.102,3.11,3.115,3.127,3.139,3.148,3.156,3.162,3.168,3.176,3.18,3.184,3.19,3.193,3.197,3.207,3.215,3.215,3.22,3.229,3.238,3.244,3.248,3.256,3.268,3.273,3.281,3.287,3.291,3.297,3.303,3.312,3.318,3.326,3.338,3.352,3.363,3.365,3.37,3.371,3.375,3.373,3.377,3.383,3.383,3.383,3.389,3.396,3.414,3.422,3.426,3.436,3.445,3.451,3.459,3.467,3.473,3.48,3.482,3.48,3.488,3.492,3.496,3.504,3.512,3.523,3.537,3.547,3.57,3.584,3.588,3.586,3.592,3.594,3.594,3.592,3.604,3.658,3.77,3.914,4.062,4.25,4.406,4.535,4.61,4.664,4.727,4.81,4.914,5.05,5.254,5.508,5.715,5.84,5.918,5.95,5.95,5.94,5.92,5.914,5.895,5.887,5.883,5.89,5.918,5.938,5.94,5.94,5.95,5.94,5.91,5.875,5.81,5.73,5.652,5.586,5.535,5.52,5.516,5.527,5.516,5.477,5.383,5.285,5.18,5.043,4.85,4.62,4.46,4.363,4.285,4.195,4.113,4.047,3.965,3.865,3.793,3.729,3.648,3.633,3.623,3.61,3.596,3.59,3.594,3.6,3.617,3.648,3.668,3.68,3.69,3.7,3.697,3.695,3.676,3.63,3.588,3.545,3.516,3.494,3.477,3.467,3.455,3.453,3.447,3.441,3.436,3.434,3.432,3.426,3.422,3.414,3.402,3.39,3.379,3.367,3.354,3.34,3.324,3.307,3.287,3.264,3.238,3.215,3.195,3.172,3.15,3.13,3.111,3.088,3.064,3.041,3.03,3.01,2.992,2.973,2.95,2.928,2.904,2.883,2.86,2.838,2.814,2.793,2.771,2.742,2.713,2.68,2.648,2.615,2.59,2.566,2.549,2.537,2.54,2.547,2.549,2.553,2.55,2.547,2.547,2.54,2.53,2.52,2.508,2.498,2.49,2.479,2.47,2.467,2.46,2.453,2.447,2.441,2.436,2.428,2.424,2.422,2.42,2.424,2.426,2.432,2.453,2.479,2.504,2.525,2.541,2.55,2.557,2.562,2.568,2.572,2.572,2.576,2.576,2.58,2.58,2.582,2.584,2.582,2.586,2.586,2.588,2.588,2.588,2.592,2.596,2.6,2.6,2.604,2.611,2.613,2.611,2.613,2.617,2.62,2.62,2.62,2.62,2.623,2.623,2.623,2.627,2.627,2.627,2.63,2.635,2.637,2.639,2.64,2.64,2.639,2.639,2.645,2.645,2.643,2.643,2.65,2.654,2.654,2.65,2.648,2.648,2.648,2.65,2.652,2.658,2.662,2.668,2.678,2.684,2.69,2.697,2.701,2.705,2.71,2.715,2.719,2.719,2.719,2.723,2.727,2.73,2.738,2.742,2.742,2.746,2.754,2.764,2.771,2.773,2.77,2.77,2.771,2.771,2.768,2.768,2.771,2.773,2.775,2.783,2.79,2.791,2.785,2.783,2.8,2.809,2.795,2.791,2.797,2.799,2.793,2.775,2.764,2.758,2.742,2.72,2.686,2.553,2.22,1.727,1.38,1.3125,1.285,1.254,1.234,1.215,1.202,1.203,1.208,1.212,1.235
3.518,3.53,3.55,3.615,3.676,3.719,3.727,3.74,3.758,3.773,3.79,3.791,3.799,3.824,3.814,3.809,3.82,3.83,3.83,3.818,3.803,3.797,3.799,3.797,3.797,3.799,3.795,3.787,3.79,3.787,3.766,3.746,3.734,3.734,3.713,3.67,3.594,3.512,3.379,3.215,3.113,3.041,3.018,2.994,2.967,2.957,2.955,2.953,2.95,2.951,2.96,2.973,2.977,2.98,2.99,2.998,3.008,3.01,3.018,3.025,3.031,3.037,3.045,3.055,3.062,3.07,3.08,3.09,3.098,3.105,3.111,3.125,3.137,3.145,3.152,3.16,3.168,3.172,3.178,3.182,3.186,3.191,3.197,3.203,3.21,3.215,3.217,3.227,3.234,3.242,3.246,3.256,3.268,3.273,3.281,3.287,3.291,3.295,3.3,3.31,3.314,3.324,3.338,3.352,3.36,3.365,3.367,3.371,3.373,3.373,3.377,3.379,3.383,3.383,3.387,3.395,3.416,3.42,3.426,3.438,3.447,3.453,3.46,3.467,3.477,3.486,3.482,3.484,3.488,3.494,3.502,3.51,3.516,3.525,3.537,3.547,3.568,3.584,3.586,3.586,3.586,3.594,3.592,3.592,3.604,3.65,3.762,3.896,4.066,4.234,4.383,4.504,4.574,4.613,4.668,4.74,4.83,4.938,5.11,5.316,5.504,5.633,5.72,5.754,5.78,5.777,5.76,5.758,5.754,5.742,5.723,5.71,5.715,5.734,5.742,5.74,5.727,5.703,5.656,5.582,5.49,5.4,5.312,5.23,5.17,5.15,5.15,5.16,5.168,5.145,5.066,4.973,4.86,4.684,4.465,4.246,4.094,4.02,3.965,3.889,3.8,3.746,3.713,3.674,3.625,3.6,3.582,3.566,3.557,3.547,3.54,3.537,3.541,3.55,3.566,3.578,3.582,3.586,3.602,3.627,3.643,3.643,3.629,3.604,3.57,3.535,3.51,3.486,3.475,3.46,3.453,3.453,3.447,3.445,3.44,3.438,3.436,3.432,3.426,3.418,3.404,3.39,3.385,3.375,3.361,3.342,3.322,3.307,3.291,3.27,3.244,3.223,3.201,3.178,3.16,3.139,3.117,3.092,3.07,3.053,3.033,3.016,2.998,2.977,2.955,2.932,2.908,2.889,2.867,2.844,2.82,2.797,2.771,2.746,2.715,2.682,2.648,2.62,2.592,2.568,2.55,2.543,2.543,2.547,2.549,2.559,2.557,2.549,2.547,2.541,2.531,2.521,2.51,2.5,2.49,2.48,2.473,2.467,2.46,2.453,2.447,2.443,2.44,2.43,2.424,2.424,2.422,2.424,2.426,2.434,2.451,2.479,2.504,2.525,2.541,2.55,2.56,2.564,2.572,2.57,2.574,2.578,2.58,2.58,2.582,2.584,2.586,2.586,2.586,2.588,2.59,2.59,2.59,2.592,2.598,2.602,2.604,2.61,2.615,2.617,2.617,2.62,2.62,2.621,2.621,2.62,2.623,2.623,2.623,2.627,2.629,2.63,2.63,2.633,2.637,2.639,2.64,2.643,2.643,2.64,2.645,2.648,2.648,2.648,2.646,2.654,2.658,2.656,2.654,2.652,2.65,2.65,2.654,2.66,2.662,2.668,2.674,2.682,2.69,2.693,2.7,2.703,2.707,2.71,2.717,2.72,2.72,2.723,2.727,2.729,2.734,2.742,2.744,2.744,2.748,2.756,2.768,2.775,2.775,2.771,2.771,2.773,2.771,2.77,2.771,2.773,2.775,2.775,2.781,2.791,2.795,2.79,2.785,2.803,2.81,2.797,2.793,2.797,2.8,2.797,2.773,2.764,2.758,2.742,2.725,2.695,2.566,2.236,1.745,1.384,1.314,1.285,1.255,1.235,1.216,1.203,1.203,1.208,1.211,1.235
3.527,3.533,3.55,3.611,3.668,3.707,3.727,3.74,3.76,3.773,3.785,3.785,3.795,3.818,3.81,3.797,3.81,3.824,3.824,3.814,3.8,3.8,3.799,3.797,3.797,3.799,3.795,3.787,3.781,3.785,3.77,3.752,3.742,3.746,3.725,3.684,3.615,3.527,3.402,3.234,3.123,3.049,3.021,2.994,2.967,2.957,2.957,2.951,2.947,2.95,2.959,2.97,2.975,2.979,2.988,2.998,3.006,3.01,3.018,3.025,3.03,3.04,3.045,3.055,3.062,3.07,3.078,3.09,3.098,3.105,3.111,3.125,3.135,3.145,3.152,3.16,3.168,3.174,3.178,3.182,3.186,3.191,3.197,3.203,3.213,3.215,3.215,3.227,3.234,3.242,3.248,3.256,3.268,3.273,3.281,3.285,3.291,3.295,3.3,3.31,3.318,3.324,3.338,3.35,3.36,3.365,3.367,3.371,3.375,3.373,3.379,3.383,3.383,3.385,3.389,3.398,3.414,3.424,3.43,3.438,3.447,3.457,3.465,3.469,3.48,3.49,3.488,3.486,3.49,3.498,3.504,3.51,3.516,3.53,3.541,3.55,3.568,3.584,3.586,3.586,3.586,3.594,3.594,3.594,3.602,3.64,3.732,3.85,3.973,4.125,4.254,4.35,4.414,4.45,4.492,4.543,4.61,4.688,4.805,4.97,5.125,5.246,5.332,5.4,5.45,5.47,5.47,5.46,5.45,5.418,5.383,5.344,5.33,5.336,5.324,5.305,5.273,5.207,5.125,5.027,4.92,4.824,4.746,4.67,4.62,4.59,4.58,4.586,4.586,4.555,4.496,4.42,4.305,4.113,3.965,3.855,3.77,3.72,3.697,3.672,3.643,3.611,3.596,3.582,3.568,3.549,3.54,3.531,3.531,3.525,3.523,3.52,3.516,3.52,3.53,3.543,3.549,3.555,3.56,3.574,3.588,3.6,3.6,3.58,3.549,3.523,3.5,3.48,3.467,3.455,3.453,3.453,3.447,3.445,3.443,3.44,3.44,3.44,3.432,3.418,3.408,3.398,3.389,3.377,3.363,3.342,3.324,3.309,3.295,3.271,3.246,3.227,3.203,3.18,3.164,3.143,3.12,3.096,3.074,3.053,3.035,3.018,3.0,2.979,2.955,2.932,2.91,2.889,2.87,2.844,2.822,2.799,2.773,2.748,2.717,2.682,2.648,2.62,2.594,2.568,2.553,2.547,2.545,2.547,2.557,2.564,2.562,2.55,2.547,2.543,2.533,2.523,2.512,2.5,2.49,2.482,2.473,2.467,2.46,2.453,2.447,2.441,2.44,2.432,2.426,2.424,2.424,2.424,2.426,2.432,2.453,2.477,2.504,2.525,2.543,2.557,2.56,2.568,2.576,2.578,2.578,2.58,2.58,2.58,2.584,2.586,2.59,2.586,2.588,2.59,2.59,2.59,2.59,2.594,2.6,2.604,2.61,2.611,2.617,2.62,2.62,2.62,2.623,2.623,2.623,2.623,2.623,2.623,2.627,2.629,2.63,2.633,2.633,2.635,2.639,2.639,2.643,2.646,2.645,2.643,2.646,2.65,2.65,2.65,2.652,2.66,2.664,2.658,2.658,2.656,2.654,2.656,2.662,2.666,2.67,2.674,2.68,2.688,2.695,2.7,2.7,2.705,2.709,2.715,2.719,2.72,2.725,2.727,2.73,2.732,2.74,2.744,2.748,2.748,2.754,2.762,2.771,2.777,2.78,2.775,2.775,2.777,2.775,2.773,2.773,2.777,2.777,2.78,2.785,2.793,2.797,2.791,2.787,2.805,2.812,2.8,2.793,2.799,2.803,2.799,2.775,2.764,2.758,2.748,2.732,2.7,2.58,2.256,1.763,1.39,1.314,1.286,1.256,1.234,1.217,1.205,1.204,1.209,1.211,1.233
3.537,3.541,3.547,3.605,3.654,3.7,3.727,3.74,3.76,3.773,3.785,3.785,3.795,3.812,3.807,3.799,3.814,3.826,3.828,3.816,3.805,3.81,3.809,3.799,3.799,3.799,3.799,3.795,3.785,3.791,3.78,3.762,3.754,3.764,3.742,3.701,3.637,3.55,3.432,3.26,3.14,3.055,3.021,3.0,2.969,2.959,2.959,2.953,2.947,2.95,2.959,2.973,2.979,2.98,2.99,2.998,3.006,3.012,3.02,3.027,3.031,3.04,3.045,3.057,3.066,3.072,3.082,3.094,3.1,3.11,3.115,3.127,3.139,3.146,3.152,3.162,3.168,3.174,3.18,3.182,3.186,3.191,3.2,3.209,3.215,3.215,3.217,3.227,3.236,3.244,3.248,3.256,3.268,3.273,3.283,3.291,3.293,3.299,3.305,3.316,3.32,3.326,3.342,3.354,3.363,3.37,3.37,3.375,3.379,3.377,3.385,3.389,3.39,3.389,3.393,3.406,3.42,3.426,3.432,3.441,3.451,3.459,3.465,3.473,3.484,3.492,3.492,3.492,3.498,3.5,3.51,3.516,3.521,3.533,3.547,3.555,3.572,3.584,3.59,3.586,3.586,3.594,3.594,3.596,3.6,3.63,3.691,3.783,3.87,3.934,3.998,4.07,4.113,4.15,4.184,4.21,4.24,4.266,4.312,4.387,4.49,4.582,4.652,4.71,4.76,4.805,4.82,4.82,4.797,4.758,4.715,4.676,4.656,4.637,4.613,4.57,4.508,4.418,4.312,4.2,4.113,4.07,4.05,4.03,4.008,3.99,3.973,3.951,3.934,3.908,3.873,3.836,3.785,3.725,3.691,3.658,3.625,3.598,3.584,3.574,3.562,3.555,3.547,3.541,3.531,3.527,3.52,3.516,3.514,3.51,3.508,3.508,3.508,3.508,3.512,3.516,3.521,3.531,3.537,3.553,3.564,3.564,3.566,3.555,3.531,3.516,3.492,3.477,3.465,3.457,3.453,3.453,3.453,3.453,3.451,3.45,3.451,3.447,3.445,3.432,3.416,3.402,3.393,3.38,3.37,3.348,3.328,3.307,3.291,3.27,3.246,3.22,3.201,3.18,3.158,3.137,3.115,3.09,3.068,3.049,3.031,3.016,2.998,2.979,2.955,2.936,2.914,2.893,2.873,2.848,2.824,2.799,2.773,2.748,2.717,2.68,2.645,2.62,2.596,2.568,2.553,2.547,2.545,2.55,2.56,2.568,2.566,2.559,2.545,2.543,2.533,2.523,2.512,2.5,2.49,2.482,2.475,2.467,2.46,2.455,2.447,2.445,2.44,2.434,2.43,2.426,2.426,2.426,2.426,2.436,2.453,2.48,2.508,2.527,2.545,2.559,2.564,2.57,2.58,2.58,2.582,2.582,2.584,2.586,2.586,2.59,2.592,2.59,2.59,2.592,2.592,2.592,2.592,2.598,2.6,2.607,2.611,2.613,2.62,2.621,2.623,2.623,2.623,2.623,2.623,2.623,2.623,2.627,2.63,2.633,2.635,2.637,2.637,2.639,2.64,2.643,2.646,2.648,2.646,2.645,2.646,2.648,2.65,2.65,2.654,2.662,2.664,2.664,2.664,2.66,2.658,2.658,2.664,2.67,2.674,2.678,2.686,2.697,2.701,2.701,2.705,2.71,2.717,2.72,2.725,2.73,2.732,2.734,2.74,2.74,2.744,2.752,2.756,2.756,2.762,2.771,2.781,2.79,2.787,2.783,2.781,2.783,2.783,2.783,2.783,2.785,2.787,2.785,2.791,2.8,2.803,2.799,2.793,2.809,2.818,2.8,2.795,2.8,2.805,2.8,2.775,2.768,2.762,2.752,2.736,2.705,2.588,2.277,1.778,1.395,1.315,1.287,1.256,1.234,1.217,1.205,1.204,1.208,1.21,1.233
3.543,3.54,3.545,3.598,3.65,3.7,3.717,3.74,3.756,3.773,3.781,3.777,3.79,3.812,3.807,3.799,3.814,3.828,3.828,3.818,3.81,3.814,3.816,3.809,3.807,3.807,3.805,3.799,3.795,3.8,3.787,3.773,3.77,3.781,3.758,3.723,3.662,3.574,3.46,3.281,3.154,3.072,3.027,3.0,2.97,2.96,2.96,2.953,2.947,2.947,2.959,2.973,2.979,2.98,2.99,2.998,3.006,3.012,3.02,3.027,3.037,3.04,3.049,3.059,3.068,3.072,3.082,3.094,3.1,3.11,3.115,3.127,3.139,3.146,3.154,3.162,3.168,3.174,3.18,3.186,3.186,3.191,3.2,3.209,3.215,3.215,3.219,3.227,3.236,3.244,3.252,3.258,3.268,3.277,3.285,3.291,3.295,3.299,3.305,3.316,3.32,3.332,3.344,3.357,3.367,3.37,3.371,3.377,3.385,3.385,3.389,3.393,3.398,3.396,3.4,3.412,3.424,3.43,3.432,3.441,3.451,3.459,3.465,3.477,3.486,3.498,3.496,3.494,3.5,3.51,3.516,3.523,3.53,3.54,3.549,3.559,3.574,3.584,3.592,3.588,3.586,3.596,3.6,3.598,3.594,3.621,3.666,3.713,3.75,3.77,3.791,3.805,3.814,3.826,3.842,3.848,3.854,3.857,3.863,3.873,3.88,3.893,3.904,3.916,3.94,3.955,3.96,3.959,3.941,3.914,3.89,3.875,3.87,3.861,3.848,3.826,3.793,3.75,3.723,3.723,3.72,3.715,3.707,3.697,3.686,3.676,3.662,3.648,3.637,3.63,3.629,3.623,3.617,3.61,3.59,3.568,3.541,3.53,3.523,3.52,3.518,3.52,3.52,3.52,3.52,3.516,3.51,3.508,3.508,3.508,3.508,3.508,3.504,3.504,3.504,3.506,3.502,3.51,3.521,3.54,3.555,3.547,3.547,3.541,3.525,3.51,3.492,3.473,3.46,3.459,3.459,3.457,3.459,3.459,3.459,3.459,3.46,3.46,3.457,3.443,3.424,3.408,3.395,3.385,3.37,3.348,3.33,3.309,3.287,3.27,3.242,3.22,3.201,3.18,3.158,3.135,3.113,3.09,3.068,3.049,3.033,3.016,3.0,2.979,2.959,2.94,2.918,2.896,2.875,2.852,2.828,2.803,2.775,2.75,2.715,2.678,2.645,2.617,2.596,2.568,2.553,2.547,2.545,2.555,2.564,2.572,2.568,2.56,2.549,2.543,2.533,2.523,2.512,2.5,2.492,2.482,2.475,2.467,2.459,2.455,2.453,2.447,2.443,2.438,2.43,2.43,2.43,2.43,2.43,2.438,2.457,2.482,2.51,2.531,2.55,2.566,2.57,2.58,2.582,2.586,2.586,2.586,2.59,2.59,2.59,2.594,2.596,2.594,2.592,2.594,2.596,2.596,2.596,2.6,2.605,2.61,2.611,2.617,2.621,2.623,2.623,2.623,2.625,2.625,2.625,2.625,2.629,2.63,2.635,2.637,2.637,2.639,2.639,2.643,2.643,2.648,2.65,2.65,2.648,2.646,2.648,2.65,2.65,2.652,2.656,2.664,2.666,2.664,2.664,2.664,2.66,2.662,2.668,2.676,2.68,2.684,2.693,2.7,2.705,2.705,2.707,2.715,2.72,2.729,2.734,2.74,2.742,2.744,2.746,2.748,2.752,2.758,2.762,2.764,2.768,2.777,2.791,2.795,2.795,2.79,2.79,2.791,2.791,2.787,2.79,2.793,2.791,2.791,2.795,2.803,2.807,2.803,2.797,2.812,2.818,2.8,2.797,2.803,2.807,2.8,2.777,2.77,2.768,2.758,2.742,2.71,2.598,2.291,1.795,1.399,1.315,1.289,1.256,1.234,1.217,1.205,1.205,1.208,1.209,1.232
3.543,3.541,3.549,3.594,3.643,3.691,3.71,3.732,3.748,3.764,3.773,3.77,3.787,3.809,3.803,3.797,3.814,3.828,3.832,3.822,3.814,3.818,3.818,3.81,3.807,3.812,3.81,3.803,3.799,3.809,3.795,3.781,3.777,3.793,3.777,3.74,3.68,3.598,3.48,3.303,3.17,3.086,3.03,3.004,2.973,2.96,2.96,2.953,2.947,2.947,2.959,2.973,2.979,2.98,2.99,2.998,3.006,3.012,3.02,3.027,3.037,3.041,3.049,3.059,3.068,3.076,3.084,3.094,3.104,3.11,3.117,3.13,3.139,3.148,3.158,3.162,3.168,3.174,3.18,3.186,3.19,3.193,3.2,3.209,3.215,3.215,3.219,3.227,3.236,3.244,3.252,3.262,3.268,3.28,3.283,3.291,3.299,3.3,3.307,3.316,3.326,3.334,3.348,3.357,3.37,3.371,3.373,3.38,3.389,3.389,3.39,3.396,3.396,3.4,3.406,3.412,3.424,3.432,3.434,3.441,3.451,3.457,3.465,3.475,3.488,3.498,3.496,3.5,3.506,3.516,3.52,3.525,3.53,3.543,3.553,3.566,3.578,3.588,3.596,3.59,3.588,3.594,3.598,3.598,3.594,3.61,3.645,3.684,3.701,3.695,3.682,3.66,3.648,3.635,3.623,3.62,3.617,3.623,3.625,3.623,3.621,3.625,3.627,3.627,3.623,3.621,3.617,3.615,3.611,3.615,3.62,3.621,3.623,3.623,3.627,3.627,3.627,3.625,3.625,3.625,3.621,3.617,3.61,3.602,3.594,3.584,3.572,3.564,3.559,3.56,3.56,3.564,3.566,3.562,3.557,3.543,3.531,3.521,3.516,3.514,3.51,3.512,3.514,3.516,3.516,3.51,3.508,3.504,3.502,3.502,3.5,3.498,3.492,3.496,3.498,3.496,3.494,3.504,3.518,3.535,3.55,3.547,3.545,3.54,3.525,3.51,3.49,3.475,3.467,3.463,3.463,3.463,3.463,3.467,3.467,3.465,3.469,3.469,3.465,3.451,3.43,3.412,3.398,3.385,3.37,3.346,3.328,3.307,3.287,3.266,3.242,3.22,3.201,3.18,3.158,3.14,3.115,3.092,3.068,3.05,3.035,3.016,3.0,2.982,2.963,2.943,2.922,2.898,2.879,2.854,2.83,2.805,2.777,2.748,2.715,2.676,2.643,2.617,2.594,2.568,2.553,2.545,2.549,2.555,2.566,2.574,2.572,2.562,2.55,2.543,2.537,2.525,2.516,2.504,2.494,2.484,2.477,2.469,2.46,2.459,2.453,2.45,2.445,2.438,2.434,2.434,2.43,2.43,2.432,2.44,2.457,2.486,2.512,2.54,2.557,2.57,2.576,2.582,2.588,2.592,2.59,2.59,2.59,2.592,2.594,2.598,2.6,2.598,2.598,2.598,2.6,2.6,2.6,2.602,2.607,2.611,2.615,2.62,2.623,2.623,2.623,2.625,2.627,2.629,2.627,2.629,2.63,2.635,2.637,2.639,2.64,2.643,2.643,2.646,2.65,2.652,2.654,2.654,2.652,2.648,2.65,2.652,2.652,2.652,2.658,2.668,2.672,2.672,2.672,2.67,2.666,2.666,2.672,2.682,2.686,2.691,2.697,2.705,2.713,2.709,2.713,2.719,2.729,2.736,2.744,2.748,2.748,2.75,2.752,2.754,2.76,2.766,2.768,2.77,2.777,2.787,2.795,2.799,2.799,2.797,2.797,2.797,2.795,2.793,2.795,2.797,2.797,2.795,2.797,2.807,2.812,2.805,2.799,2.816,2.822,2.805,2.797,2.805,2.809,2.803,2.78,2.771,2.768,2.76,2.744,2.715,2.605,2.307,1.807,1.405,1.316,1.289,1.257,1.235,1.217,1.205,1.205,1.208,1.209,1.232
3.543,3.541,3.549,3.594,3.639,3.68,3.697,3.719,3.738,3.75,3.756,3.76,3.781,3.805,3.799,3.793,3.812,3.83,3.83,3.82,3.81,3.816,3.816,3.805,3.803,3.807,3.803,3.797,3.791,3.803,3.79,3.781,3.777,3.791,3.78,3.746,3.688,3.613,3.498,3.322,3.184,3.096,3.031,3.004,2.975,2.965,2.96,2.953,2.947,2.947,2.959,2.973,2.979,2.982,2.988,2.998,3.006,3.014,3.021,3.031,3.037,3.043,3.049,3.059,3.068,3.076,3.086,3.096,3.104,3.111,3.117,3.13,3.14,3.15,3.158,3.162,3.168,3.174,3.18,3.184,3.186,3.191,3.2,3.209,3.215,3.215,3.217,3.229,3.238,3.244,3.252,3.262,3.268,3.28,3.283,3.291,3.297,3.299,3.305,3.318,3.324,3.332,3.344,3.355,3.365,3.37,3.37,3.379,3.383,3.38,3.387,3.39,3.395,3.396,3.4,3.414,3.422,3.426,3.432,3.441,3.451,3.459,3.469,3.479,3.486,3.5,3.5,3.5,3.51,3.516,3.525,3.531,3.537,3.55,3.559,3.568,3.582,3.594,3.602,3.598,3.598,3.596,3.604,3.604,3.6,3.61,3.637,3.66,3.66,3.648,3.635,3.613,3.59,3.574,3.564,3.559,3.555,3.562,3.568,3.572,3.57,3.576,3.58,3.582,3.576,3.578,3.574,3.574,3.576,3.578,3.582,3.586,3.588,3.592,3.594,3.6,3.605,3.613,3.617,3.617,3.62,3.615,3.607,3.598,3.582,3.57,3.559,3.549,3.545,3.549,3.553,3.56,3.56,3.555,3.549,3.537,3.531,3.527,3.521,3.52,3.518,3.516,3.516,3.52,3.52,3.514,3.51,3.504,3.5,3.5,3.494,3.49,3.486,3.486,3.49,3.49,3.49,3.5,3.518,3.535,3.55,3.549,3.547,3.537,3.525,3.51,3.492,3.473,3.463,3.46,3.459,3.46,3.455,3.459,3.459,3.459,3.46,3.46,3.463,3.447,3.426,3.406,3.393,3.379,3.361,3.34,3.32,3.299,3.28,3.264,3.24,3.219,3.201,3.18,3.162,3.14,3.12,3.098,3.076,3.055,3.04,3.021,3.006,2.986,2.967,2.945,2.922,2.902,2.879,2.857,2.832,2.807,2.777,2.75,2.713,2.676,2.643,2.62,2.592,2.568,2.553,2.545,2.547,2.555,2.568,2.576,2.572,2.564,2.557,2.543,2.537,2.527,2.516,2.504,2.498,2.484,2.48,2.47,2.46,2.459,2.457,2.451,2.445,2.441,2.438,2.436,2.434,2.434,2.436,2.44,2.459,2.484,2.52,2.543,2.562,2.576,2.58,2.588,2.592,2.594,2.594,2.594,2.596,2.596,2.6,2.602,2.602,2.602,2.6,2.602,2.602,2.604,2.604,2.605,2.611,2.617,2.62,2.621,2.625,2.627,2.627,2.627,2.63,2.633,2.63,2.63,2.635,2.637,2.639,2.643,2.643,2.643,2.645,2.648,2.65,2.652,2.656,2.658,2.656,2.654,2.654,2.658,2.66,2.66,2.664,2.672,2.678,2.678,2.68,2.68,2.676,2.676,2.686,2.691,2.695,2.7,2.707,2.717,2.72,2.717,2.719,2.725,2.732,2.742,2.746,2.748,2.75,2.754,2.756,2.758,2.764,2.768,2.771,2.775,2.78,2.79,2.797,2.803,2.803,2.797,2.797,2.797,2.797,2.797,2.797,2.797,2.797,2.797,2.799,2.81,2.812,2.807,2.803,2.818,2.824,2.805,2.803,2.809,2.812,2.805,2.781,2.773,2.773,2.762,2.746,2.719,2.611,2.312,1.816,1.409,1.316,1.289,1.256,1.234,1.217,1.206,1.206,1.207,1.208,1.232
3.54,3.537,3.547,3.588,3.629,3.666,3.682,3.697,3.715,3.732,3.744,3.75,3.773,3.793,3.787,3.783,3.809,3.822,3.822,3.814,3.807,3.81,3.81,3.799,3.797,3.799,3.795,3.785,3.781,3.791,3.785,3.773,3.771,3.787,3.78,3.75,3.701,3.623,3.514,3.346,3.2,3.105,3.031,3.006,2.975,2.967,2.963,2.953,2.947,2.947,2.959,2.973,2.979,2.984,2.992,2.998,3.008,3.016,3.023,3.03,3.04,3.043,3.053,3.064,3.072,3.08,3.088,3.098,3.107,3.115,3.12,3.133,3.145,3.15,3.156,3.162,3.168,3.176,3.18,3.184,3.19,3.193,3.201,3.209,3.215,3.217,3.22,3.229,3.238,3.246,3.254,3.262,3.27,3.28,3.283,3.291,3.295,3.299,3.305,3.318,3.322,3.33,3.344,3.352,3.361,3.37,3.37,3.373,3.377,3.377,3.38,3.389,3.393,3.395,3.398,3.41,3.42,3.426,3.432,3.441,3.451,3.463,3.47,3.479,3.49,3.504,3.506,3.506,3.512,3.52,3.53,3.533,3.541,3.553,3.566,3.574,3.59,3.602,3.607,3.604,3.604,3.605,3.611,3.615,3.61,3.621,3.63,3.635,3.629,3.621,3.607,3.59,3.568,3.55,3.54,3.531,3.531,3.54,3.545,3.55,3.549,3.553,3.557,3.557,3.557,3.557,3.564,3.564,3.568,3.572,3.578,3.584,3.586,3.596,3.598,3.604,3.61,3.611,3.62,3.62,3.623,3.623,3.613,3.604,3.586,3.572,3.562,3.553,3.55,3.55,3.56,3.562,3.562,3.56,3.553,3.55,3.543,3.543,3.535,3.531,3.525,3.52,3.521,3.521,3.52,3.514,3.51,3.502,3.498,3.496,3.49,3.486,3.48,3.479,3.482,3.484,3.49,3.5,3.52,3.54,3.55,3.547,3.547,3.537,3.525,3.51,3.488,3.473,3.46,3.455,3.455,3.455,3.453,3.447,3.45,3.447,3.451,3.451,3.451,3.44,3.418,3.398,3.385,3.373,3.354,3.332,3.309,3.29,3.273,3.256,3.238,3.219,3.201,3.182,3.162,3.145,3.121,3.1,3.078,3.057,3.04,3.021,3.004,2.988,2.967,2.943,2.924,2.902,2.879,2.855,2.834,2.807,2.78,2.748,2.713,2.674,2.64,2.62,2.592,2.568,2.549,2.543,2.547,2.555,2.568,2.578,2.576,2.568,2.559,2.547,2.54,2.53,2.518,2.506,2.498,2.488,2.482,2.475,2.465,2.459,2.459,2.453,2.45,2.443,2.441,2.438,2.436,2.436,2.438,2.441,2.459,2.486,2.52,2.545,2.568,2.578,2.584,2.59,2.596,2.6,2.598,2.598,2.6,2.602,2.602,2.605,2.605,2.604,2.604,2.604,2.605,2.61,2.61,2.611,2.615,2.621,2.621,2.625,2.627,2.63,2.63,2.63,2.633,2.635,2.635,2.635,2.637,2.637,2.64,2.645,2.646,2.646,2.646,2.65,2.652,2.656,2.658,2.662,2.658,2.656,2.658,2.664,2.666,2.67,2.674,2.68,2.686,2.69,2.69,2.69,2.688,2.688,2.697,2.705,2.709,2.715,2.719,2.727,2.729,2.725,2.725,2.73,2.74,2.746,2.75,2.754,2.754,2.756,2.76,2.762,2.766,2.77,2.775,2.78,2.783,2.793,2.803,2.807,2.807,2.8,2.8,2.8,2.799,2.797,2.797,2.8,2.8,2.799,2.803,2.812,2.818,2.809,2.807,2.822,2.828,2.809,2.807,2.812,2.816,2.807,2.785,2.78,2.775,2.766,2.748,2.723,2.617,2.32,1.821,1.413,1.316,1.289,1.255,1.234,1.217,1.206,1.206,1.207,1.208,1.232
3.537,3.533,3.54,3.582,3.617,3.648,3.672,3.691,3.709,3.72,3.729,3.742,3.768,3.787,3.775,3.777,3.803,3.82,3.82,3.812,3.807,3.809,3.803,3.795,3.793,3.793,3.785,3.78,3.773,3.783,3.781,3.773,3.77,3.791,3.787,3.76,3.71,3.64,3.531,3.377,3.219,3.12,3.033,3.006,2.977,2.967,2.963,2.955,2.947,2.947,2.959,2.975,2.98,2.986,2.994,2.998,3.01,3.018,3.025,3.035,3.043,3.047,3.055,3.066,3.074,3.082,3.092,3.102,3.11,3.115,3.123,3.137,3.145,3.156,3.158,3.162,3.172,3.18,3.18,3.186,3.191,3.197,3.201,3.209,3.215,3.217,3.223,3.23,3.242,3.248,3.254,3.262,3.271,3.28,3.285,3.291,3.295,3.299,3.305,3.316,3.32,3.332,3.34,3.35,3.357,3.361,3.365,3.367,3.371,3.371,3.373,3.38,3.385,3.389,3.395,3.406,3.418,3.424,3.428,3.438,3.45,3.459,3.47,3.479,3.494,3.506,3.508,3.512,3.52,3.525,3.533,3.54,3.545,3.559,3.574,3.582,3.598,3.607,3.617,3.611,3.611,3.62,3.627,3.627,3.623,3.629,3.629,3.62,3.61,3.596,3.584,3.57,3.55,3.537,3.53,3.523,3.523,3.53,3.537,3.543,3.543,3.547,3.553,3.555,3.555,3.555,3.564,3.568,3.572,3.578,3.584,3.586,3.594,3.598,3.604,3.607,3.615,3.62,3.627,3.63,3.63,3.63,3.621,3.611,3.604,3.588,3.576,3.568,3.566,3.566,3.574,3.576,3.572,3.57,3.566,3.566,3.56,3.553,3.543,3.533,3.527,3.52,3.521,3.52,3.52,3.516,3.51,3.5,3.494,3.486,3.48,3.477,3.47,3.47,3.475,3.479,3.488,3.504,3.525,3.545,3.555,3.557,3.549,3.537,3.523,3.506,3.486,3.47,3.455,3.453,3.45,3.451,3.447,3.445,3.445,3.447,3.447,3.45,3.441,3.434,3.414,3.393,3.377,3.367,3.346,3.32,3.3,3.283,3.268,3.25,3.23,3.213,3.197,3.178,3.162,3.145,3.121,3.1,3.078,3.057,3.04,3.021,3.004,2.986,2.965,2.943,2.924,2.902,2.883,2.86,2.832,2.807,2.78,2.748,2.713,2.674,2.639,2.615,2.59,2.566,2.549,2.541,2.543,2.555,2.566,2.578,2.576,2.57,2.56,2.549,2.54,2.53,2.518,2.51,2.498,2.492,2.482,2.475,2.467,2.46,2.46,2.457,2.451,2.445,2.441,2.441,2.438,2.438,2.44,2.445,2.46,2.486,2.521,2.55,2.572,2.584,2.588,2.592,2.598,2.602,2.602,2.602,2.604,2.605,2.607,2.611,2.611,2.61,2.61,2.61,2.611,2.611,2.611,2.615,2.621,2.623,2.625,2.627,2.633,2.637,2.637,2.637,2.637,2.639,2.639,2.637,2.639,2.64,2.645,2.646,2.648,2.648,2.648,2.652,2.656,2.658,2.662,2.664,2.662,2.66,2.664,2.668,2.67,2.676,2.68,2.69,2.695,2.697,2.7,2.697,2.7,2.701,2.71,2.72,2.723,2.723,2.73,2.738,2.742,2.732,2.734,2.74,2.748,2.752,2.758,2.76,2.758,2.76,2.762,2.764,2.77,2.775,2.78,2.783,2.791,2.799,2.81,2.816,2.814,2.81,2.807,2.809,2.805,2.805,2.803,2.805,2.805,2.803,2.807,2.816,2.822,2.812,2.81,2.828,2.83,2.812,2.81,2.814,2.818,2.809,2.787,2.78,2.78,2.766,2.75,2.727,2.621,2.322,1.824,1.414,1.316,1.288,1.254,1.232,1.218,1.206,1.206,1.208,1.208,1.232
