1.141,1.119,1.089,1.07,1.051,1.032,1.02,1.014,1.014,1.017,1.019,1.02,1.02,1.019,1.019,1.021,1.025,1.028,1.029,1.03,1.033,1.035,1.037,1.037,1.039,1.041,1.043,1.046,1.048,1.051,1.052,1.054,1.057,1.061,1.0625,1.064,1.066,1.069,1.07,1.073,1.075,1.078,1.082,1.084,1.086,1.087,1.088,1.09,1.091,1.094,1.095,1.098,1.101,1.103,1.104,1.105,1.107,1.11,1.112,1.115,1.116,1.118,1.119,1.121,1.122,1.122,1.124,1.125,1.127,1.128,1.13,1.135,1.14,1.141,1.144,1.145,1.148,1.15,1.152,1.154,1.157,1.16,1.163,1.166,1.17,1.172,1.176,1.178,1.179,1.182,1.184,1.185,1.186,1.1875,1.19,1.193,1.196,1.203,1.209,1.213,1.219,1.225,1.232,1.24,1.246,1.25,1.248,1.251,1.259,1.263,1.262,1.265,1.272,1.271,1.2705,1.284,1.338,1.444,1.758,2.342,2.902,3.365,3.594,3.652,3.68,3.697,3.693,3.701,3.713,3.72,3.713,3.693,3.67,3.648,3.646,3.65,3.648,3.643,3.643,3.646,3.646,3.645,3.65,3.656,3.664,3.676,3.684,3.686,3.69,3.695,3.7,3.697,3.693,3.695,3.7,3.701,3.701,3.703,3.703,3.701,3.703,3.703,3.703,3.697,3.684,3.676,3.666,3.658,3.643,3.625,3.602,3.58,3.559,3.535,3.516,3.498,3.488,3.475,3.46,3.445,3.428,3.406,3.385,3.361,3.33,3.295,3.266,3.238,3.209,3.178,3.154,3.133,3.121,3.11,3.102,3.092,3.08,3.062,3.047,3.023,2.986,2.941,2.92,2.904,2.889,2.871,2.854,2.838,2.826,2.814,2.807,2.797,2.793,2.795,2.797,2.797,2.791,2.783,2.773,2.766,2.758,2.75,2.744,2.742,2.742,2.746,2.744,2.744,2.744,2.748,2.752,2.754,2.76,2.764,2.77,2.777,2.781,2.79,2.795,2.8,2.805,2.812,2.818,2.826,2.838,2.846,2.852,2.861,2.867,2.873,2.879,2.883,2.883,2.88,2.879,2.875,2.867,2.857,2.848,2.844,2.838,2.83,2.82,2.81,2.8,2.795,2.791,2.787,2.783,2.775,2.77,2.77,2.77,2.768,2.766,2.771,2.781,2.783,2.783,2.783,2.787,2.795,2.79,2.791,2.832,2.922,3.12,3.303,3.426,3.492,3.527,3.55,3.566,3.582,3.598,3.6,3.604,3.604,3.607,3.611,3.611,3.611,3.61,3.605,3.6,3.598,3.594,3.59,3.592,3.594,3.6,3.604,3.602,3.605,3.605,3.607,3.611,3.61,3.611,3.611,3.611,3.611,3.611,3.611,3.605,3.598,3.588,3.586,3.588,3.59,3.58,3.566,3.559,3.566,3.59,3.664,3.822,4.164,4.69,5.117,5.32,5.49,5.527,5.508,5.492,5.49,5.508,5.51,5.492,5.48,5.47,5.445,5.434,5.426,5.41,5.383,5.367,5.35,5.35,5.344,5.33,5.316,5.297,5.28,5.277,5.27,5.26,5.266,5.273,5.28,5.293,5.297,5.305,5.31,5.32,5.324,5.332,5.34,5.344,5.348,5.35,5.35,5.35,5.355,5.36,5.367,5.38,5.39,5.395,5.4,5.402,5.41,5.43,5.44,5.453,5.45,5.45,5.465,5.48,5.496,5.51,5.535,5.57,5.61,5.64,5.66,5.676,5.688,5.715,5.754,5.74,5.715,5.68,5.64,5.6,5.52,5.35,5.13,4.73,4.14,3.572,3.352,3.299,3.283,3.287,3.297,3.303,3.307,3.3,3.291,3.287,3.283,3.287,3.291,3.295,3.3,3.299,3.29,3.271,3.264,3.266,3.264,3.256,3.248,3.248,3.242,3.232,3.215,3.195,3.176,3.152,3.14,3.137,3.12,3.098,3.072,3.055,3.04,3.018,3.0,2.988,2.98,2.967,2.951,2.936,2.922,2.906,2.895,2.885,2.867,2.85,2.838,2.82,2.807,2.793,2.773,2.756,2.73,2.7,2.67,2.646,2.633,2.617,2.605,2.61,2.611,2.617,2.617,2.615,2.615,2.61,2.6,2.586,2.58,2.586,2.592,2.594,2.602,2.57,2.588
1.139,1.117,1.088,1.07,1.05,1.032,1.02,1.015,1.015,1.018,1.019,1.02,1.0205,1.019,1.02,1.022,1.026,1.029,1.03,1.031,1.033,1.036,1.037,1.038,1.04,1.042,1.043,1.047,1.049,1.051,1.053,1.054,1.058,1.061,1.063,1.065,1.066,1.069,1.071,1.073,1.076,1.078,1.082,1.085,1.087,1.087,1.089,1.09,1.092,1.094,1.097,1.099,1.102,1.104,1.1045,1.106,1.108,1.111,1.114,1.115,1.118,1.119,1.121,1.123,1.124,1.125,1.125,1.126,1.128,1.129,1.132,1.136,1.141,1.144,1.146,1.147,1.15,1.152,1.154,1.157,1.159,1.162,1.165,1.169,1.172,1.175,1.178,1.18,1.182,1.184,1.186,1.187,1.187,1.19,1.192,1.195,1.198,1.205,1.21,1.215,1.221,1.226,1.234,1.241,1.248,1.25,1.249,1.252,1.26,1.265,1.264,1.266,1.274,1.272,1.2705,1.282,1.33,1.42,1.689,2.26,2.812,3.297,3.568,3.65,3.682,3.7,3.697,3.707,3.72,3.729,3.723,3.703,3.684,3.664,3.672,3.672,3.666,3.662,3.66,3.662,3.66,3.656,3.66,3.664,3.67,3.68,3.688,3.69,3.693,3.697,3.697,3.691,3.693,3.693,3.7,3.697,3.697,3.703,3.703,3.703,3.703,3.707,3.707,3.701,3.691,3.682,3.674,3.662,3.648,3.627,3.605,3.586,3.559,3.54,3.521,3.506,3.496,3.482,3.475,3.463,3.447,3.43,3.41,3.398,3.379,3.357,3.344,3.33,3.32,3.31,3.31,3.305,3.299,3.307,3.32,3.326,3.324,3.314,3.287,3.248,3.213,3.178,3.145,3.105,3.053,3.014,2.982,2.957,2.93,2.906,2.88,2.855,2.838,2.832,2.828,2.824,2.816,2.807,2.8,2.791,2.781,2.77,2.762,2.758,2.758,2.758,2.754,2.75,2.744,2.746,2.746,2.748,2.754,2.762,2.768,2.78,2.785,2.797,2.803,2.809,2.812,2.818,2.826,2.834,2.84,2.844,2.848,2.857,2.867,2.871,2.877,2.877,2.877,2.875,2.871,2.861,2.854,2.842,2.832,2.826,2.82,2.816,2.807,2.8,2.791,2.787,2.781,2.781,2.775,2.775,2.771,2.77,2.768,2.764,2.76,2.762,2.77,2.777,2.777,2.78,2.791,2.799,2.793,2.791,2.828,2.922,3.117,3.309,3.428,3.492,3.53,3.555,3.572,3.584,3.602,3.604,3.605,3.607,3.611,3.613,3.615,3.617,3.615,3.61,3.604,3.604,3.596,3.594,3.596,3.598,3.604,3.605,3.604,3.607,3.61,3.61,3.611,3.613,3.613,3.613,3.61,3.611,3.61,3.613,3.61,3.602,3.592,3.59,3.592,3.598,3.588,3.574,3.566,3.572,3.604,3.678,3.842,4.215,4.75,5.176,5.363,5.535,5.57,5.55,5.53,5.523,5.55,5.55,5.535,5.523,5.508,5.48,5.465,5.46,5.44,5.414,5.402,5.4,5.387,5.37,5.35,5.34,5.316,5.3,5.293,5.293,5.28,5.285,5.293,5.297,5.305,5.312,5.316,5.324,5.332,5.344,5.35,5.36,5.367,5.37,5.38,5.383,5.383,5.387,5.395,5.402,5.41,5.42,5.438,5.44,5.44,5.453,5.465,5.477,5.492,5.49,5.5,5.52,5.543,5.562,5.57,5.582,5.617,5.66,5.69,5.707,5.727,5.727,5.74,5.777,5.777,5.758,5.72,5.676,5.63,5.56,5.395,5.133,4.727,4.12,3.557,3.35,3.297,3.277,3.281,3.291,3.299,3.303,3.297,3.287,3.277,3.273,3.28,3.285,3.287,3.297,3.297,3.287,3.27,3.262,3.266,3.26,3.252,3.246,3.242,3.238,3.229,3.21,3.191,3.17,3.15,3.14,3.135,3.117,3.098,3.07,3.055,3.037,3.016,3.0,2.986,2.979,2.963,2.95,2.932,2.918,2.902,2.893,2.88,2.865,2.848,2.834,2.818,2.805,2.79,2.771,2.754,2.729,2.7,2.672,2.65,2.635,2.62,2.605,2.611,2.615,2.623,2.621,2.617,2.613,2.607,2.598,2.584,2.578,2.586,2.59,2.594,2.605,2.572,2.588
1.138,1.117,1.088,1.07,1.052,1.034,1.02,1.016,1.016,1.019,1.0205,1.0205,1.0205,1.0205,1.0205,1.022,1.027,1.03,1.031,1.031,1.034,1.036,1.037,1.039,1.041,1.043,1.045,1.047,1.05,1.052,1.054,1.055,1.059,1.0625,1.064,1.066,1.068,1.069,1.072,1.074,1.076,1.08,1.081,1.085,1.087,1.088,1.09,1.091,1.093,1.095,1.097,1.1,1.103,1.1045,1.105,1.107,1.109,1.111,1.114,1.116,1.118,1.12,1.122,1.124,1.125,1.125,1.126,1.127,1.129,1.131,1.133,1.138,1.142,1.145,1.146,1.149,1.151,1.153,1.155,1.158,1.161,1.164,1.167,1.17,1.174,1.177,1.18,1.183,1.184,1.187,1.188,1.189,1.19,1.192,1.195,1.196,1.2,1.205,1.212,1.217,1.221,1.227,1.234,1.242,1.247,1.249,1.248,1.252,1.261,1.265,1.265,1.267,1.276,1.274,1.271,1.281,1.324,1.398,1.627,2.158,2.723,3.229,3.541,3.643,3.672,3.691,3.691,3.705,3.723,3.73,3.723,3.705,3.688,3.678,3.684,3.682,3.676,3.67,3.67,3.668,3.664,3.664,3.664,3.664,3.672,3.678,3.688,3.69,3.69,3.697,3.691,3.69,3.69,3.69,3.695,3.693,3.697,3.7,3.703,3.7,3.701,3.703,3.703,3.695,3.686,3.68,3.67,3.662,3.645,3.627,3.604,3.578,3.557,3.54,3.523,3.514,3.498,3.49,3.484,3.479,3.463,3.45,3.436,3.426,3.412,3.4,3.39,3.383,3.379,3.377,3.379,3.383,3.389,3.404,3.418,3.426,3.426,3.418,3.404,3.379,3.354,3.344,3.332,3.312,3.285,3.26,3.229,3.18,3.12,3.057,3.027,2.994,2.965,2.947,2.928,2.912,2.893,2.873,2.855,2.836,2.818,2.803,2.793,2.787,2.781,2.777,2.768,2.762,2.754,2.752,2.75,2.75,2.754,2.76,2.766,2.773,2.783,2.791,2.797,2.799,2.805,2.81,2.818,2.822,2.83,2.836,2.84,2.842,2.848,2.854,2.857,2.857,2.857,2.854,2.852,2.846,2.838,2.83,2.828,2.83,2.83,2.828,2.822,2.818,2.812,2.809,2.807,2.805,2.8,2.797,2.793,2.791,2.781,2.775,2.768,2.771,2.78,2.785,2.785,2.79,2.797,2.805,2.797,2.799,2.84,2.936,3.137,3.328,3.441,3.506,3.541,3.566,3.582,3.598,3.61,3.61,3.615,3.62,3.62,3.623,3.625,3.625,3.623,3.62,3.611,3.611,3.607,3.604,3.604,3.607,3.611,3.613,3.611,3.617,3.617,3.617,3.617,3.62,3.623,3.62,3.617,3.617,3.617,3.62,3.617,3.607,3.602,3.598,3.6,3.604,3.596,3.582,3.576,3.584,3.617,3.7,3.88,4.3,4.832,5.24,5.42,5.574,5.613,5.598,5.582,5.57,5.59,5.598,5.582,5.574,5.555,5.523,5.5,5.492,5.473,5.453,5.445,5.43,5.418,5.402,5.38,5.367,5.348,5.32,5.312,5.31,5.297,5.297,5.3,5.3,5.31,5.316,5.32,5.324,5.332,5.348,5.355,5.36,5.37,5.38,5.387,5.387,5.39,5.395,5.4,5.402,5.414,5.426,5.438,5.445,5.45,5.457,5.465,5.477,5.484,5.492,5.5,5.51,5.54,5.56,5.57,5.58,5.62,5.668,5.695,5.715,5.734,5.754,5.754,5.78,5.8,5.785,5.754,5.715,5.668,5.605,5.43,5.137,4.71,4.094,3.54,3.352,3.297,3.275,3.283,3.297,3.303,3.31,3.3,3.29,3.277,3.273,3.277,3.28,3.287,3.293,3.293,3.283,3.266,3.262,3.262,3.26,3.252,3.246,3.242,3.238,3.229,3.21,3.193,3.168,3.152,3.143,3.139,3.121,3.1,3.076,3.059,3.043,3.02,3.004,2.992,2.98,2.97,2.953,2.934,2.922,2.908,2.896,2.887,2.87,2.85,2.836,2.818,2.805,2.79,2.77,2.752,2.727,2.697,2.672,2.654,2.637,2.621,2.607,2.615,2.623,2.625,2.627,2.623,2.621,2.613,2.604,2.596,2.586,2.598,2.6,2.605,2.615,2.58,2.59
1.136,1.116,1.088,1.072,1.054,1.034,1.0205,1.016,1.017,1.019,1.02,1.021,1.0205,1.02,1.0205,1.022,1.026,1.029,1.031,1.031,1.034,1.036,1.037,1.038,1.041,1.043,1.045,1.047,1.05,1.052,1.054,1.057,1.059,1.0625,1.065,1.067,1.068,1.07,1.073,1.075,1.076,1.08,1.082,1.085,1.088,1.088,1.09,1.092,1.094,1.096,1.098,1.1,1.103,1.104,1.106,1.107,1.111,1.113,1.114,1.118,1.119,1.121,1.123,1.125,1.126,1.126,1.128,1.129,1.131,1.132,1.133,1.139,1.143,1.145,1.146,1.149,1.152,1.153,1.155,1.159,1.161,1.165,1.168,1.17,1.175,1.178,1.18,1.184,1.184,1.1875,1.189,1.19,1.191,1.194,1.197,1.197,1.201,1.208,1.212,1.217,1.221,1.227,1.234,1.242,1.247,1.248,1.248,1.254,1.262,1.267,1.265,1.269,1.276,1.274,1.272,1.278,1.317,1.379,1.571,2.05,2.627,3.139,3.504,3.623,3.66,3.69,3.686,3.703,3.723,3.727,3.723,3.705,3.691,3.68,3.684,3.69,3.682,3.676,3.67,3.67,3.664,3.662,3.662,3.664,3.664,3.674,3.682,3.684,3.69,3.69,3.69,3.69,3.69,3.69,3.69,3.688,3.695,3.703,3.703,3.703,3.703,3.703,3.707,3.703,3.693,3.686,3.68,3.668,3.65,3.633,3.611,3.586,3.562,3.543,3.531,3.518,3.508,3.498,3.494,3.486,3.479,3.465,3.455,3.445,3.438,3.426,3.422,3.42,3.418,3.424,3.43,3.432,3.436,3.45,3.46,3.469,3.469,3.46,3.453,3.443,3.434,3.424,3.424,3.426,3.428,3.422,3.418,3.41,3.383,3.354,3.31,3.266,3.21,3.158,3.113,3.082,3.057,3.033,3.012,2.986,2.959,2.932,2.906,2.88,2.855,2.842,2.832,2.822,2.812,2.809,2.8,2.793,2.791,2.791,2.795,2.797,2.799,2.8,2.807,2.807,2.81,2.814,2.82,2.824,2.828,2.836,2.842,2.848,2.85,2.852,2.855,2.855,2.855,2.855,2.852,2.848,2.846,2.846,2.844,2.848,2.85,2.85,2.848,2.844,2.842,2.836,2.834,2.834,2.828,2.824,2.818,2.814,2.809,2.797,2.787,2.79,2.795,2.799,2.799,2.8,2.809,2.81,2.797,2.807,2.863,2.963,3.182,3.357,3.465,3.521,3.559,3.578,3.594,3.605,3.617,3.621,3.621,3.627,3.63,3.633,3.63,3.63,3.633,3.629,3.623,3.621,3.62,3.611,3.615,3.62,3.627,3.627,3.625,3.629,3.629,3.629,3.629,3.629,3.629,3.629,3.625,3.625,3.625,3.629,3.625,3.617,3.607,3.605,3.61,3.611,3.602,3.59,3.584,3.592,3.625,3.715,3.926,4.363,4.914,5.293,5.46,5.61,5.65,5.64,5.613,5.605,5.63,5.633,5.617,5.605,5.594,5.562,5.54,5.523,5.504,5.492,5.48,5.46,5.457,5.445,5.43,5.418,5.402,5.375,5.367,5.363,5.344,5.348,5.35,5.355,5.36,5.363,5.367,5.37,5.38,5.39,5.4,5.406,5.414,5.42,5.43,5.434,5.434,5.438,5.44,5.45,5.453,5.46,5.473,5.48,5.484,5.492,5.5,5.5,5.508,5.508,5.51,5.527,5.543,5.555,5.566,5.58,5.617,5.67,5.7,5.715,5.742,5.773,5.777,5.8,5.824,5.832,5.8,5.77,5.72,5.645,5.477,5.15,4.68,4.043,3.527,3.354,3.297,3.277,3.283,3.297,3.303,3.31,3.3,3.283,3.27,3.271,3.275,3.273,3.277,3.287,3.285,3.275,3.26,3.256,3.262,3.26,3.248,3.24,3.24,3.238,3.223,3.205,3.188,3.166,3.146,3.139,3.137,3.117,3.098,3.074,3.059,3.04,3.02,3.004,2.99,2.98,2.963,2.951,2.932,2.918,2.902,2.893,2.88,2.865,2.844,2.834,2.818,2.803,2.787,2.768,2.75,2.725,2.695,2.672,2.652,2.637,2.621,2.613,2.615,2.623,2.629,2.627,2.623,2.621,2.615,2.61,2.598,2.594,2.604,2.607,2.61,2.617,2.584,2.59
1.135,1.115,1.087,1.07,1.053,1.034,1.02,1.016,1.015,1.019,1.02,1.02,1.02,1.019,1.02,1.022,1.026,1.028,1.029,1.03,1.032,1.035,1.036,1.037,1.04,1.041,1.043,1.046,1.049,1.051,1.053,1.054,1.058,1.061,1.063,1.065,1.067,1.069,1.07,1.073,1.075,1.078,1.081,1.084,1.085,1.087,1.089,1.09,1.093,1.095,1.097,1.099,1.102,1.104,1.105,1.106,1.109,1.111,1.114,1.117,1.118,1.121,1.122,1.125,1.126,1.126,1.127,1.128,1.13,1.132,1.134,1.138,1.142,1.1455,1.147,1.149,1.151,1.153,1.155,1.158,1.161,1.164,1.167,1.17,1.174,1.177,1.181,1.183,1.184,1.1875,1.189,1.189,1.19,1.194,1.196,1.198,1.2,1.207,1.212,1.216,1.221,1.227,1.234,1.242,1.246,1.248,1.248,1.254,1.264,1.268,1.267,1.269,1.276,1.274,1.271,1.276,1.31,1.363,1.524,1.944,2.533,3.06,3.469,3.617,3.66,3.693,3.691,3.71,3.729,3.74,3.734,3.725,3.71,3.697,3.695,3.703,3.697,3.691,3.686,3.684,3.674,3.67,3.668,3.668,3.67,3.678,3.686,3.686,3.693,3.697,3.693,3.691,3.691,3.691,3.693,3.69,3.695,3.703,3.707,3.707,3.709,3.71,3.713,3.707,3.7,3.691,3.684,3.674,3.658,3.639,3.621,3.596,3.574,3.557,3.54,3.53,3.52,3.508,3.504,3.498,3.49,3.479,3.473,3.467,3.46,3.453,3.45,3.445,3.445,3.453,3.46,3.469,3.465,3.47,3.482,3.488,3.484,3.482,3.482,3.48,3.488,3.498,3.512,3.525,3.543,3.557,3.562,3.562,3.557,3.537,3.516,3.5,3.467,3.43,3.396,3.371,3.34,3.312,3.283,3.25,3.209,3.17,3.13,3.094,3.082,3.064,3.049,3.03,3.012,2.99,2.963,2.93,2.904,2.89,2.879,2.87,2.86,2.855,2.852,2.848,2.848,2.846,2.85,2.85,2.852,2.855,2.86,2.863,2.867,2.87,2.87,2.865,2.863,2.863,2.861,2.86,2.852,2.842,2.838,2.838,2.842,2.844,2.844,2.844,2.846,2.848,2.85,2.848,2.846,2.84,2.838,2.836,2.832,2.824,2.812,2.81,2.814,2.816,2.818,2.82,2.818,2.81,2.803,2.814,2.871,2.988,3.21,3.387,3.494,3.54,3.568,3.586,3.596,3.607,3.62,3.623,3.625,3.629,3.635,3.635,3.637,3.637,3.635,3.633,3.627,3.623,3.621,3.617,3.62,3.623,3.627,3.627,3.629,3.629,3.629,3.629,3.629,3.629,3.629,3.629,3.629,3.629,3.629,3.629,3.627,3.62,3.61,3.61,3.61,3.61,3.602,3.594,3.584,3.596,3.629,3.727,3.959,4.41,4.98,5.33,5.492,5.637,5.68,5.676,5.652,5.645,5.668,5.676,5.66,5.652,5.633,5.61,5.582,5.574,5.555,5.53,5.527,5.516,5.508,5.5,5.484,5.477,5.465,5.45,5.434,5.418,5.406,5.406,5.414,5.414,5.418,5.42,5.426,5.434,5.438,5.445,5.45,5.453,5.465,5.473,5.484,5.484,5.49,5.492,5.496,5.504,5.51,5.52,5.527,5.53,5.535,5.543,5.547,5.555,5.56,5.55,5.55,5.566,5.58,5.586,5.594,5.598,5.613,5.695,5.727,5.746,5.78,5.812,5.816,5.848,5.87,5.867,5.84,5.805,5.746,5.668,5.496,5.16,4.65,3.994,3.514,3.354,3.295,3.271,3.273,3.29,3.297,3.3,3.291,3.271,3.26,3.266,3.266,3.266,3.268,3.277,3.281,3.273,3.254,3.25,3.256,3.254,3.244,3.236,3.234,3.23,3.217,3.201,3.182,3.16,3.143,3.139,3.135,3.115,3.094,3.068,3.053,3.037,3.016,3.0,2.986,2.975,2.96,2.945,2.926,2.91,2.898,2.887,2.877,2.861,2.84,2.83,2.816,2.799,2.785,2.766,2.75,2.723,2.691,2.668,2.648,2.63,2.621,2.611,2.617,2.623,2.629,2.627,2.621,2.62,2.613,2.607,2.598,2.592,2.6,2.605,2.605,2.615,2.584,2.59
1.132,1.113,1.086,1.07,1.052,1.033,1.019,1.015,1.014,1.018,1.018,1.018,1.018,1.017,1.018,1.0205,1.024,1.027,1.027,1.028,1.03,1.032,1.034,1.035,1.036,1.038,1.039,1.042,1.044,1.045,1.047,1.049,1.052,1.055,1.058,1.06,1.06,1.0625,1.064,1.066,1.068,1.071,1.074,1.077,1.078,1.08,1.082,1.084,1.086,1.088,1.09,1.093,1.096,1.098,1.1,1.102,1.1045,1.106,1.11,1.112,1.114,1.117,1.119,1.12,1.122,1.122,1.123,1.125,1.127,1.128,1.13,1.134,1.138,1.141,1.143,1.145,1.147,1.148,1.151,1.153,1.156,1.16,1.163,1.166,1.169,1.172,1.175,1.178,1.179,1.182,1.183,1.185,1.186,1.1875,1.189,1.191,1.193,1.2,1.205,1.208,1.212,1.219,1.228,1.234,1.238,1.24,1.24,1.248,1.257,1.261,1.261,1.263,1.2705,1.27,1.269,1.272,1.301,1.347,1.476,1.833,2.43,2.975,3.426,3.611,3.67,3.705,3.705,3.725,3.742,3.758,3.762,3.75,3.74,3.727,3.72,3.727,3.729,3.723,3.719,3.719,3.71,3.707,3.701,3.7,3.7,3.703,3.707,3.707,3.71,3.71,3.707,3.701,3.701,3.701,3.7,3.693,3.69,3.7,3.7,3.7,3.697,3.697,3.7,3.695,3.691,3.684,3.674,3.664,3.65,3.63,3.615,3.59,3.568,3.553,3.541,3.531,3.52,3.512,3.506,3.5,3.494,3.488,3.484,3.48,3.479,3.477,3.477,3.479,3.48,3.486,3.494,3.5,3.504,3.51,3.516,3.516,3.512,3.508,3.512,3.518,3.527,3.537,3.557,3.572,3.594,3.605,3.611,3.62,3.627,3.627,3.627,3.613,3.59,3.568,3.545,3.531,3.512,3.5,3.488,3.47,3.443,3.414,3.383,3.373,3.36,3.344,3.314,3.293,3.262,3.223,3.178,3.137,3.086,3.049,3.018,2.99,2.965,2.943,2.932,2.918,2.908,2.902,2.898,2.896,2.898,2.896,2.898,2.896,2.896,2.893,2.887,2.883,2.879,2.877,2.875,2.863,2.857,2.848,2.844,2.844,2.844,2.846,2.846,2.848,2.848,2.85,2.85,2.848,2.844,2.84,2.836,2.832,2.83,2.824,2.822,2.82,2.818,2.812,2.809,2.807,2.805,2.803,2.803,2.83,2.895,3.025,3.236,3.4,3.49,3.531,3.557,3.57,3.582,3.592,3.6,3.602,3.607,3.61,3.615,3.613,3.617,3.617,3.613,3.611,3.604,3.604,3.598,3.594,3.596,3.6,3.604,3.604,3.605,3.607,3.61,3.61,3.61,3.61,3.61,3.61,3.605,3.607,3.61,3.611,3.607,3.602,3.596,3.592,3.592,3.594,3.582,3.57,3.562,3.574,3.613,3.71,3.95,4.414,4.992,5.344,5.504,5.664,5.71,5.703,5.68,5.668,5.695,5.7,5.688,5.68,5.66,5.633,5.605,5.598,5.586,5.566,5.547,5.535,5.527,5.52,5.504,5.5,5.484,5.473,5.465,5.44,5.434,5.434,5.438,5.44,5.45,5.453,5.453,5.45,5.457,5.465,5.465,5.477,5.49,5.496,5.508,5.51,5.516,5.52,5.527,5.53,5.547,5.55,5.555,5.566,5.574,5.582,5.58,5.574,5.582,5.574,5.57,5.582,5.613,5.625,5.63,5.637,5.64,5.74,5.77,5.797,5.83,5.85,5.87,5.914,5.926,5.906,5.875,5.83,5.77,5.7,5.52,5.168,4.645,3.969,3.498,3.346,3.283,3.262,3.264,3.281,3.293,3.293,3.287,3.264,3.264,3.27,3.273,3.275,3.277,3.291,3.295,3.29,3.27,3.264,3.27,3.268,3.258,3.25,3.244,3.24,3.229,3.213,3.197,3.178,3.16,3.154,3.152,3.133,3.113,3.088,3.072,3.055,3.033,3.018,3.004,2.992,2.975,2.959,2.941,2.924,2.91,2.898,2.889,2.871,2.852,2.84,2.822,2.809,2.791,2.77,2.75,2.723,2.691,2.67,2.648,2.63,2.62,2.611,2.621,2.627,2.63,2.627,2.621,2.615,2.61,2.602,2.598,2.59,2.6,2.605,2.605,2.615,2.582,2.59
1.13,1.111,1.084,1.068,1.051,1.033,1.018,1.013,1.014,1.016,1.017,1.018,1.017,1.016,1.017,1.02,1.022,1.026,1.027,1.027,1.029,1.032,1.032,1.033,1.034,1.036,1.037,1.04,1.042,1.043,1.045,1.046,1.049,1.052,1.055,1.057,1.058,1.059,1.061,1.0625,1.065,1.068,1.071,1.074,1.076,1.077,1.08,1.081,1.083,1.086,1.087,1.091,1.094,1.095,1.097,1.1,1.102,1.105,1.107,1.111,1.113,1.115,1.117,1.119,1.121,1.121,1.121,1.124,1.126,1.127,1.128,1.133,1.136,1.139,1.141,1.143,1.1455,1.146,1.149,1.151,1.154,1.157,1.16,1.163,1.167,1.169,1.172,1.174,1.176,1.179,1.181,1.181,1.183,1.184,1.186,1.1875,1.189,1.195,1.2,1.204,1.207,1.213,1.221,1.229,1.232,1.233,1.233,1.241,1.251,1.254,1.254,1.258,1.266,1.265,1.265,1.269,1.293,1.334,1.422,1.734,2.299,2.889,3.379,3.605,3.672,3.71,3.717,3.732,3.752,3.766,3.777,3.773,3.764,3.752,3.742,3.73,3.732,3.742,3.742,3.736,3.732,3.729,3.727,3.723,3.717,3.717,3.723,3.723,3.723,3.723,3.717,3.709,3.705,3.703,3.701,3.691,3.688,3.697,3.701,3.7,3.693,3.693,3.693,3.69,3.684,3.678,3.668,3.66,3.643,3.623,3.605,3.586,3.564,3.549,3.537,3.531,3.52,3.512,3.506,3.5,3.494,3.492,3.492,3.49,3.494,3.504,3.502,3.506,3.512,3.52,3.527,3.53,3.533,3.54,3.547,3.547,3.547,3.545,3.547,3.555,3.562,3.572,3.586,3.605,3.62,3.629,3.635,3.639,3.64,3.646,3.652,3.65,3.646,3.639,3.629,3.61,3.59,3.584,3.584,3.58,3.56,3.543,3.533,3.537,3.531,3.516,3.48,3.44,3.406,3.377,3.348,3.309,3.26,3.213,3.166,3.12,3.09,3.064,3.04,3.018,3.002,2.986,2.977,2.969,2.963,2.957,2.953,2.95,2.941,2.936,2.926,2.916,2.912,2.906,2.9,2.889,2.877,2.87,2.867,2.865,2.865,2.865,2.865,2.867,2.87,2.87,2.867,2.863,2.86,2.85,2.844,2.836,2.832,2.83,2.824,2.822,2.814,2.807,2.805,2.807,2.816,2.822,2.842,2.879,2.965,3.098,3.293,3.428,3.49,3.53,3.549,3.56,3.57,3.582,3.59,3.592,3.594,3.6,3.605,3.604,3.604,3.604,3.604,3.596,3.594,3.594,3.584,3.584,3.584,3.586,3.588,3.588,3.588,3.594,3.594,3.594,3.594,3.594,3.596,3.594,3.594,3.594,3.596,3.602,3.6,3.592,3.584,3.582,3.586,3.584,3.57,3.557,3.549,3.564,3.598,3.697,3.934,4.4,4.98,5.348,5.516,5.68,5.746,5.74,5.707,5.69,5.727,5.734,5.723,5.71,5.688,5.652,5.63,5.625,5.61,5.582,5.562,5.547,5.543,5.54,5.527,5.52,5.51,5.48,5.473,5.47,5.457,5.46,5.47,5.47,5.465,5.453,5.465,5.465,5.473,5.484,5.49,5.5,5.516,5.53,5.543,5.55,5.555,5.56,5.562,5.57,5.58,5.582,5.586,5.598,5.605,5.61,5.6,5.598,5.6,5.598,5.594,5.617,5.656,5.668,5.68,5.69,5.715,5.797,5.83,5.848,5.88,5.895,5.93,5.97,5.97,5.938,5.902,5.855,5.793,5.73,5.54,5.18,4.637,3.94,3.49,3.34,3.28,3.256,3.262,3.28,3.295,3.297,3.29,3.268,3.27,3.28,3.285,3.29,3.293,3.309,3.309,3.305,3.285,3.277,3.28,3.277,3.27,3.262,3.258,3.254,3.242,3.227,3.209,3.188,3.172,3.166,3.162,3.143,3.123,3.1,3.084,3.068,3.047,3.03,3.02,3.004,2.986,2.97,2.953,2.936,2.92,2.906,2.896,2.879,2.861,2.846,2.83,2.812,2.793,2.771,2.754,2.727,2.691,2.672,2.65,2.633,2.62,2.615,2.625,2.63,2.635,2.629,2.62,2.613,2.605,2.602,2.598,2.59,2.6,2.605,2.605,2.613,2.58,2.588
1.128,1.109,1.082,1.067,1.05,1.032,1.017,1.013,1.014,1.016,1.017,1.017,1.017,1.016,1.016,1.019,1.022,1.026,1.026,1.026,1.029,1.031,1.031,1.032,1.034,1.036,1.037,1.04,1.041,1.042,1.044,1.047,1.048,1.052,1.055,1.056,1.058,1.059,1.061,1.0625,1.065,1.069,1.072,1.075,1.076,1.078,1.08,1.082,1.083,1.086,1.088,1.091,1.094,1.096,1.098,1.101,1.103,1.105,1.109,1.112,1.113,1.115,1.117,1.119,1.121,1.121,1.122,1.124,1.126,1.128,1.129,1.133,1.136,1.14,1.141,1.143,1.1455,1.147,1.149,1.151,1.154,1.157,1.16,1.162,1.165,1.169,1.172,1.174,1.176,1.179,1.181,1.181,1.183,1.185,1.187,1.1875,1.189,1.194,1.198,1.203,1.207,1.212,1.22,1.228,1.23,1.232,1.233,1.238,1.249,1.252,1.252,1.258,1.264,1.264,1.265,1.269,1.286,1.321,1.384,1.642,2.146,2.787,3.312,3.596,3.678,3.723,3.73,3.744,3.762,3.773,3.791,3.797,3.79,3.78,3.768,3.75,3.734,3.736,3.748,3.75,3.74,3.734,3.73,3.73,3.725,3.725,3.729,3.73,3.73,3.729,3.72,3.713,3.71,3.709,3.705,3.7,3.695,3.703,3.707,3.701,3.691,3.69,3.688,3.682,3.676,3.672,3.666,3.648,3.63,3.613,3.598,3.578,3.559,3.543,3.531,3.527,3.52,3.512,3.506,3.502,3.498,3.498,3.496,3.502,3.506,3.514,3.52,3.518,3.527,3.531,3.541,3.543,3.549,3.559,3.566,3.572,3.568,3.566,3.57,3.578,3.594,3.602,3.617,3.63,3.645,3.65,3.654,3.658,3.662,3.664,3.668,3.668,3.668,3.672,3.668,3.66,3.65,3.654,3.658,3.654,3.63,3.611,3.615,3.615,3.61,3.59,3.562,3.514,3.48,3.463,3.438,3.412,3.39,3.363,3.336,3.305,3.271,3.246,3.227,3.2,3.174,3.152,3.137,3.123,3.107,3.088,3.066,3.045,3.033,3.02,3.006,2.994,2.982,2.979,2.967,2.957,2.945,2.934,2.926,2.926,2.922,2.922,2.92,2.92,2.922,2.92,2.916,2.912,2.906,2.896,2.89,2.883,2.877,2.875,2.867,2.865,2.861,2.854,2.855,2.861,2.875,2.898,2.945,3.018,3.105,3.244,3.38,3.467,3.516,3.541,3.559,3.562,3.58,3.588,3.598,3.6,3.6,3.605,3.607,3.61,3.61,3.61,3.605,3.602,3.594,3.594,3.592,3.586,3.586,3.586,3.586,3.586,3.59,3.596,3.596,3.596,3.596,3.596,3.596,3.594,3.594,3.594,3.594,3.596,3.596,3.588,3.582,3.584,3.586,3.584,3.566,3.549,3.543,3.557,3.598,3.693,3.941,4.41,4.98,5.355,5.523,5.688,5.77,5.76,5.73,5.71,5.746,5.758,5.75,5.742,5.71,5.68,5.652,5.645,5.625,5.594,5.586,5.58,5.57,5.566,5.562,5.543,5.516,5.504,5.504,5.508,5.496,5.49,5.477,5.484,5.492,5.496,5.5,5.5,5.508,5.52,5.523,5.543,5.56,5.574,5.586,5.59,5.598,5.61,5.617,5.63,5.637,5.64,5.64,5.652,5.656,5.652,5.65,5.645,5.652,5.64,5.652,5.684,5.707,5.72,5.74,5.742,5.797,5.844,5.855,5.875,5.902,5.914,5.94,5.97,5.977,5.95,5.906,5.863,5.82,5.73,5.523,5.18,4.61,3.92,3.488,3.342,3.28,3.256,3.262,3.28,3.295,3.299,3.29,3.268,3.271,3.28,3.285,3.287,3.293,3.309,3.309,3.303,3.281,3.273,3.28,3.277,3.266,3.258,3.256,3.248,3.238,3.223,3.205,3.188,3.168,3.166,3.16,3.143,3.121,3.1,3.084,3.064,3.043,3.031,3.018,3.004,2.988,2.97,2.951,2.936,2.922,2.904,2.895,2.879,2.86,2.846,2.832,2.812,2.793,2.77,2.75,2.723,2.691,2.67,2.65,2.635,2.623,2.62,2.633,2.637,2.639,2.633,2.621,2.615,2.61,2.604,2.6,2.594,2.604,2.61,2.607,2.613,2.582,2.588
1.126,1.107,1.08,1.064,1.048,1.03,1.016,1.011,1.012,1.016,1.016,1.017,1.016,1.015,1.016,1.018,1.022,1.024,1.026,1.026,1.028,1.03,1.031,1.031,1.033,1.034,1.036,1.039,1.04,1.042,1.043,1.045,1.048,1.051,1.054,1.055,1.056,1.059,1.06,1.0625,1.064,1.067,1.07,1.074,1.076,1.077,1.08,1.081,1.083,1.085,1.087,1.09,1.093,1.095,1.097,1.101,1.103,1.105,1.108,1.111,1.113,1.115,1.117,1.119,1.121,1.121,1.122,1.124,1.126,1.128,1.129,1.133,1.136,1.14,1.141,1.142,1.1455,1.147,1.149,1.151,1.154,1.157,1.16,1.162,1.167,1.169,1.173,1.176,1.177,1.179,1.181,1.183,1.184,1.186,1.1875,1.1875,1.19,1.196,1.201,1.202,1.207,1.212,1.22,1.228,1.23,1.23,1.232,1.238,1.248,1.25,1.25,1.255,1.26,1.262,1.264,1.264,1.278,1.307,1.353,1.543,1.99,2.666,3.22,3.57,3.678,3.73,3.742,3.762,3.78,3.787,3.803,3.812,3.814,3.805,3.787,3.773,3.756,3.738,3.744,3.744,3.742,3.732,3.73,3.727,3.725,3.725,3.729,3.734,3.736,3.738,3.732,3.723,3.719,3.719,3.717,3.707,3.703,3.713,3.713,3.709,3.697,3.69,3.684,3.678,3.672,3.666,3.656,3.645,3.625,3.605,3.59,3.57,3.549,3.533,3.527,3.52,3.512,3.508,3.504,3.498,3.494,3.496,3.502,3.508,3.514,3.521,3.53,3.535,3.543,3.55,3.559,3.564,3.564,3.57,3.584,3.596,3.598,3.598,3.598,3.605,3.617,3.629,3.645,3.654,3.666,3.676,3.678,3.676,3.68,3.68,3.682,3.68,3.68,3.68,3.678,3.68,3.691,3.701,3.7,3.686,3.67,3.645,3.627,3.63,3.62,3.6,3.566,3.53,3.52,3.498,3.477,3.463,3.455,3.445,3.438,3.432,3.42,3.41,3.402,3.396,3.39,3.389,3.373,3.36,3.342,3.324,3.307,3.28,3.246,3.203,3.16,3.13,3.115,3.098,3.082,3.059,3.043,3.027,3.018,3.012,3.006,3.004,3.002,3.002,3.002,3.006,3.004,3.0,2.99,2.984,2.979,2.975,2.97,2.97,2.97,2.969,2.967,2.967,2.979,3.006,3.05,3.096,3.146,3.246,3.334,3.412,3.473,3.508,3.537,3.559,3.568,3.582,3.59,3.598,3.605,3.607,3.611,3.613,3.611,3.611,3.611,3.611,3.61,3.602,3.596,3.594,3.588,3.586,3.584,3.586,3.586,3.586,3.588,3.592,3.596,3.596,3.596,3.594,3.596,3.594,3.59,3.588,3.588,3.594,3.592,3.584,3.578,3.582,3.584,3.576,3.562,3.545,3.535,3.553,3.594,3.691,3.957,4.45,5.016,5.383,5.54,5.703,5.785,5.77,5.742,5.73,5.766,5.78,5.777,5.777,5.76,5.723,5.7,5.7,5.684,5.652,5.637,5.63,5.625,5.617,5.598,5.59,5.582,5.566,5.566,5.555,5.516,5.527,5.54,5.547,5.56,5.56,5.562,5.562,5.57,5.582,5.59,5.6,5.617,5.633,5.645,5.65,5.656,5.668,5.676,5.688,5.695,5.695,5.7,5.707,5.707,5.703,5.7,5.7,5.703,5.707,5.73,5.75,5.77,5.785,5.81,5.816,5.867,5.88,5.875,5.887,5.918,5.95,5.957,5.965,5.965,5.953,5.902,5.86,5.805,5.688,5.504,5.15,4.547,3.889,3.469,3.324,3.277,3.242,3.256,3.275,3.287,3.293,3.283,3.258,3.264,3.27,3.275,3.28,3.285,3.299,3.3,3.293,3.275,3.266,3.27,3.268,3.262,3.25,3.246,3.244,3.23,3.215,3.197,3.178,3.162,3.156,3.152,3.137,3.113,3.094,3.074,3.059,3.037,3.021,3.01,2.998,2.98,2.963,2.945,2.93,2.916,2.9,2.889,2.873,2.855,2.842,2.826,2.81,2.791,2.77,2.75,2.723,2.691,2.67,2.652,2.637,2.627,2.625,2.635,2.64,2.64,2.637,2.627,2.62,2.611,2.61,2.604,2.598,2.605,2.61,2.61,2.611,2.576,2.588
1.123,1.105,1.078,1.0625,1.046,1.028,1.015,1.01,1.01,1.014,1.015,1.016,1.015,1.014,1.015,1.018,1.021,1.023,1.025,1.025,1.026,1.028,1.029,1.03,1.031,1.032,1.035,1.036,1.038,1.04,1.041,1.043,1.046,1.048,1.051,1.053,1.053,1.055,1.057,1.059,1.061,1.063,1.067,1.07,1.072,1.073,1.076,1.077,1.079,1.081,1.084,1.087,1.09,1.092,1.094,1.097,1.101,1.102,1.105,1.109,1.111,1.113,1.115,1.117,1.118,1.118,1.12,1.122,1.124,1.126,1.128,1.132,1.135,1.138,1.14,1.141,1.144,1.1455,1.148,1.151,1.153,1.156,1.159,1.162,1.167,1.17,1.173,1.175,1.177,1.179,1.182,1.183,1.184,1.186,1.1875,1.188,1.191,1.196,1.2,1.201,1.205,1.211,1.218,1.224,1.226,1.228,1.229,1.237,1.246,1.247,1.245,1.251,1.254,1.257,1.26,1.26,1.27,1.293,1.333,1.463,1.879,2.52,3.125,3.527,3.68,3.744,3.758,3.78,3.803,3.812,3.82,3.832,3.838,3.83,3.812,3.795,3.78,3.762,3.748,3.754,3.744,3.738,3.734,3.729,3.727,3.727,3.73,3.736,3.744,3.748,3.742,3.734,3.73,3.729,3.727,3.719,3.713,3.717,3.72,3.72,3.71,3.701,3.695,3.69,3.684,3.678,3.666,3.652,3.63,3.613,3.6,3.58,3.557,3.541,3.53,3.523,3.518,3.516,3.512,3.508,3.504,3.508,3.514,3.521,3.527,3.543,3.553,3.562,3.574,3.586,3.598,3.6,3.602,3.615,3.629,3.64,3.643,3.64,3.64,3.65,3.666,3.676,3.686,3.7,3.709,3.717,3.713,3.71,3.709,3.705,3.705,3.703,3.697,3.7,3.705,3.719,3.719,3.717,3.717,3.705,3.69,3.672,3.652,3.635,3.617,3.592,3.562,3.547,3.525,3.51,3.498,3.494,3.496,3.498,3.496,3.496,3.502,3.512,3.52,3.525,3.53,3.531,3.535,3.537,3.531,3.518,3.502,3.48,3.455,3.42,3.389,3.352,3.312,3.277,3.24,3.193,3.158,3.129,3.104,3.082,3.078,3.07,3.068,3.068,3.074,3.078,3.08,3.082,3.082,3.084,3.086,3.088,3.094,3.102,3.11,3.121,3.139,3.158,3.19,3.23,3.295,3.352,3.402,3.443,3.482,3.512,3.53,3.541,3.56,3.572,3.586,3.596,3.602,3.61,3.615,3.621,3.621,3.62,3.62,3.621,3.62,3.613,3.61,3.602,3.598,3.592,3.584,3.58,3.582,3.582,3.584,3.582,3.582,3.59,3.592,3.592,3.592,3.592,3.592,3.592,3.588,3.588,3.586,3.592,3.584,3.582,3.578,3.578,3.582,3.572,3.56,3.547,3.535,3.555,3.596,3.701,3.982,4.492,5.07,5.438,5.58,5.74,5.8,5.785,5.754,5.742,5.777,5.797,5.797,5.8,5.8,5.785,5.77,5.773,5.766,5.74,5.715,5.703,5.695,5.684,5.664,5.652,5.637,5.62,5.617,5.582,5.566,5.58,5.582,5.59,5.598,5.605,5.605,5.61,5.62,5.633,5.645,5.66,5.676,5.688,5.7,5.703,5.707,5.707,5.715,5.727,5.74,5.742,5.742,5.754,5.754,5.76,5.76,5.76,5.76,5.77,5.785,5.805,5.82,5.848,5.867,5.9,5.926,5.92,5.906,5.91,5.945,5.97,5.984,5.97,5.953,5.945,5.88,5.82,5.746,5.645,5.465,5.082,4.477,3.852,3.447,3.305,3.262,3.232,3.246,3.268,3.281,3.287,3.277,3.252,3.254,3.262,3.266,3.27,3.275,3.287,3.293,3.287,3.27,3.262,3.266,3.264,3.258,3.248,3.242,3.238,3.227,3.21,3.191,3.174,3.154,3.15,3.145,3.127,3.11,3.086,3.07,3.05,3.027,3.016,3.002,2.988,2.973,2.955,2.938,2.922,2.906,2.896,2.887,2.87,2.85,2.838,2.826,2.809,2.79,2.77,2.75,2.725,2.693,2.672,2.654,2.64,2.629,2.629,2.637,2.643,2.645,2.643,2.63,2.623,2.615,2.61,2.604,2.598,2.605,2.611,2.61,2.61,2.576,2.588
1.121,1.1045,1.076,1.061,1.043,1.026,1.012,1.008,1.01,1.013,1.013,1.014,1.014,1.012,1.014,1.016,1.02,1.021,1.023,1.022,1.024,1.027,1.027,1.027,1.028,1.029,1.031,1.033,1.035,1.037,1.038,1.039,1.041,1.045,1.048,1.049,1.05,1.052,1.054,1.055,1.057,1.06,1.063,1.066,1.069,1.07,1.072,1.074,1.076,1.078,1.081,1.084,1.087,1.089,1.091,1.093,1.097,1.1,1.103,1.105,1.107,1.11,1.112,1.115,1.115,1.115,1.117,1.119,1.121,1.124,1.124,1.128,1.132,1.135,1.137,1.139,1.141,1.144,1.1455,1.148,1.151,1.153,1.156,1.16,1.163,1.167,1.17,1.172,1.175,1.177,1.179,1.18,1.182,1.185,1.186,1.187,1.188,1.193,1.197,1.199,1.202,1.207,1.214,1.22,1.223,1.224,1.225,1.234,1.242,1.243,1.242,1.248,1.25,1.253,1.259,1.26,1.266,1.282,1.317,1.422,1.76,2.352,3.014,3.48,3.678,3.752,3.771,3.795,3.82,3.832,3.836,3.844,3.855,3.852,3.836,3.818,3.799,3.781,3.766,3.768,3.762,3.754,3.748,3.744,3.74,3.74,3.744,3.748,3.754,3.762,3.754,3.744,3.742,3.736,3.734,3.73,3.715,3.71,3.71,3.715,3.709,3.701,3.693,3.688,3.678,3.67,3.66,3.648,3.63,3.615,3.604,3.586,3.564,3.55,3.541,3.535,3.527,3.523,3.52,3.518,3.518,3.518,3.521,3.533,3.541,3.555,3.568,3.576,3.592,3.605,3.617,3.623,3.627,3.637,3.646,3.654,3.66,3.664,3.662,3.678,3.691,3.703,3.709,3.717,3.73,3.738,3.732,3.729,3.725,3.72,3.72,3.723,3.723,3.73,3.734,3.734,3.736,3.736,3.734,3.727,3.713,3.695,3.678,3.664,3.639,3.607,3.584,3.56,3.537,3.521,3.516,3.52,3.531,3.537,3.543,3.55,3.559,3.576,3.588,3.596,3.607,3.615,3.621,3.627,3.629,3.625,3.623,3.613,3.596,3.566,3.541,3.508,3.48,3.451,3.424,3.383,3.346,3.305,3.268,3.238,3.22,3.213,3.209,3.209,3.21,3.213,3.217,3.215,3.217,3.217,3.225,3.234,3.252,3.27,3.293,3.314,3.346,3.383,3.412,3.443,3.475,3.496,3.516,3.525,3.54,3.545,3.553,3.559,3.568,3.58,3.594,3.598,3.604,3.607,3.613,3.617,3.62,3.62,3.62,3.617,3.613,3.61,3.604,3.598,3.59,3.584,3.578,3.574,3.574,3.574,3.574,3.574,3.574,3.58,3.58,3.58,3.58,3.58,3.582,3.58,3.582,3.582,3.582,3.584,3.58,3.572,3.57,3.57,3.57,3.566,3.553,3.543,3.527,3.55,3.592,3.693,3.986,4.504,5.094,5.47,5.613,5.766,5.81,5.793,5.773,5.76,5.797,5.82,5.816,5.824,5.824,5.816,5.81,5.812,5.81,5.793,5.773,5.758,5.75,5.74,5.73,5.7,5.68,5.664,5.656,5.64,5.605,5.6,5.61,5.617,5.63,5.64,5.65,5.656,5.668,5.68,5.688,5.703,5.723,5.734,5.742,5.75,5.746,5.75,5.754,5.76,5.773,5.777,5.785,5.793,5.797,5.81,5.812,5.805,5.816,5.83,5.836,5.863,5.875,5.902,5.953,5.984,5.996,6.0,5.98,5.99,6.01,6.023,6.03,6.016,5.984,5.96,5.87,5.82,5.75,5.652,5.47,5.07,4.457,3.83,3.432,3.297,3.254,3.227,3.242,3.264,3.28,3.283,3.277,3.254,3.256,3.26,3.264,3.268,3.275,3.29,3.295,3.29,3.271,3.264,3.268,3.266,3.26,3.25,3.246,3.24,3.229,3.215,3.193,3.176,3.156,3.15,3.146,3.13,3.11,3.088,3.072,3.053,3.03,3.016,3.004,2.986,2.973,2.953,2.94,2.924,2.908,2.895,2.887,2.87,2.85,2.838,2.826,2.81,2.79,2.768,2.75,2.725,2.693,2.672,2.654,2.643,2.629,2.63,2.639,2.64,2.64,2.643,2.633,2.625,2.617,2.61,2.604,2.6,2.605,2.61,2.61,2.61,2.576,2.59
1.12,1.103,1.075,1.06,1.042,1.024,1.011,1.007,1.008,1.012,1.013,1.013,1.013,1.013,1.013,1.015,1.019,1.022,1.023,1.022,1.024,1.027,1.027,1.027,1.027,1.029,1.031,1.033,1.035,1.037,1.038,1.04,1.043,1.046,1.049,1.05,1.051,1.053,1.055,1.057,1.059,1.061,1.065,1.068,1.07,1.071,1.073,1.076,1.077,1.079,1.082,1.085,1.088,1.09,1.091,1.094,1.097,1.1,1.103,1.105,1.108,1.11,1.113,1.115,1.117,1.117,1.118,1.12,1.122,1.124,1.125,1.129,1.133,1.135,1.137,1.139,1.141,1.144,1.1455,1.149,1.151,1.153,1.156,1.159,1.163,1.167,1.17,1.173,1.174,1.177,1.179,1.18,1.182,1.184,1.186,1.1875,1.189,1.194,1.198,1.199,1.202,1.207,1.214,1.221,1.222,1.223,1.227,1.234,1.241,1.242,1.242,1.248,1.251,1.252,1.26,1.263,1.268,1.278,1.307,1.3955,1.655,2.201,2.895,3.418,3.668,3.756,3.775,3.8,3.828,3.838,3.846,3.85,3.86,3.86,3.846,3.828,3.807,3.793,3.78,3.764,3.768,3.764,3.756,3.754,3.748,3.748,3.752,3.756,3.766,3.768,3.76,3.752,3.744,3.744,3.74,3.732,3.719,3.713,3.713,3.71,3.701,3.695,3.69,3.682,3.668,3.664,3.654,3.643,3.627,3.611,3.602,3.586,3.566,3.557,3.549,3.543,3.535,3.53,3.525,3.523,3.523,3.523,3.531,3.54,3.549,3.566,3.578,3.586,3.6,3.615,3.625,3.63,3.639,3.65,3.662,3.674,3.678,3.68,3.682,3.693,3.709,3.717,3.729,3.738,3.75,3.762,3.76,3.756,3.752,3.75,3.748,3.746,3.75,3.754,3.754,3.756,3.758,3.758,3.756,3.744,3.732,3.713,3.7,3.68,3.656,3.625,3.598,3.582,3.574,3.557,3.547,3.541,3.553,3.564,3.58,3.592,3.602,3.61,3.611,3.621,3.639,3.656,3.666,3.672,3.676,3.676,3.68,3.678,3.672,3.662,3.643,3.621,3.602,3.58,3.557,3.525,3.494,3.47,3.451,3.432,3.418,3.408,3.402,3.396,3.396,3.396,3.395,3.389,3.393,3.393,3.402,3.41,3.422,3.44,3.457,3.469,3.486,3.5,3.516,3.533,3.549,3.557,3.555,3.557,3.564,3.568,3.57,3.57,3.58,3.594,3.598,3.604,3.605,3.61,3.617,3.617,3.62,3.62,3.62,3.62,3.615,3.615,3.611,3.602,3.596,3.594,3.588,3.586,3.586,3.586,3.586,3.584,3.584,3.586,3.586,3.586,3.586,3.586,3.59,3.59,3.588,3.588,3.588,3.59,3.588,3.578,3.574,3.572,3.578,3.57,3.562,3.553,3.545,3.559,3.598,3.688,3.969,4.48,5.08,5.47,5.63,5.773,5.816,5.81,5.797,5.79,5.832,5.855,5.855,5.86,5.863,5.85,5.848,5.85,5.855,5.844,5.83,5.82,5.812,5.805,5.785,5.773,5.73,5.72,5.715,5.703,5.684,5.66,5.664,5.67,5.68,5.695,5.71,5.72,5.73,5.74,5.75,5.76,5.78,5.785,5.793,5.797,5.805,5.805,5.812,5.82,5.832,5.832,5.836,5.84,5.844,5.848,5.863,5.875,5.883,5.89,5.895,5.91,5.965,6.004,6.04,6.062,6.08,6.08,6.07,6.08,6.09,6.09,6.09,6.066,6.02,5.984,5.887,5.83,5.773,5.664,5.48,5.07,4.44,3.814,3.414,3.297,3.254,3.225,3.24,3.264,3.273,3.28,3.27,3.25,3.25,3.252,3.256,3.258,3.264,3.28,3.287,3.281,3.26,3.252,3.262,3.258,3.248,3.242,3.236,3.232,3.22,3.205,3.186,3.168,3.15,3.145,3.14,3.127,3.105,3.084,3.064,3.047,3.025,3.012,3.0,2.982,2.965,2.95,2.932,2.918,2.902,2.89,2.88,2.863,2.846,2.834,2.822,2.805,2.785,2.762,2.746,2.719,2.69,2.668,2.65,2.64,2.63,2.63,2.639,2.639,2.637,2.64,2.635,2.623,2.613,2.605,2.6,2.594,2.602,2.605,2.607,2.607,2.576,2.588
1.119,1.103,1.075,1.059,1.041,1.024,1.011,1.008,1.009,1.013,1.013,1.015,1.014,1.014,1.014,1.018,1.02,1.023,1.024,1.024,1.027,1.029,1.03,1.031,1.031,1.034,1.036,1.038,1.04,1.042,1.043,1.046,1.048,1.053,1.056,1.057,1.057,1.06,1.062,1.0625,1.065,1.067,1.071,1.074,1.076,1.077,1.08,1.082,1.084,1.086,1.087,1.09,1.094,1.095,1.096,1.099,1.102,1.104,1.107,1.109,1.112,1.115,1.117,1.12,1.121,1.121,1.122,1.125,1.127,1.129,1.131,1.135,1.139,1.14,1.143,1.145,1.146,1.148,1.15,1.153,1.155,1.158,1.16,1.164,1.168,1.171,1.173,1.176,1.178,1.182,1.183,1.183,1.186,1.1875,1.19,1.191,1.194,1.197,1.202,1.204,1.206,1.212,1.22,1.226,1.228,1.229,1.232,1.239,1.245,1.246,1.245,1.252,1.257,1.254,1.267,1.271,1.275,1.282,1.305,1.388,1.588,2.096,2.777,3.342,3.639,3.756,3.773,3.8,3.828,3.84,3.854,3.857,3.867,3.871,3.855,3.836,3.82,3.803,3.785,3.768,3.764,3.77,3.762,3.758,3.748,3.75,3.752,3.758,3.758,3.766,3.756,3.746,3.744,3.74,3.742,3.73,3.715,3.709,3.703,3.697,3.693,3.69,3.686,3.678,3.668,3.664,3.652,3.637,3.621,3.605,3.598,3.58,3.564,3.555,3.549,3.545,3.537,3.531,3.531,3.531,3.531,3.531,3.537,3.545,3.56,3.57,3.582,3.592,3.605,3.62,3.627,3.633,3.64,3.652,3.67,3.682,3.69,3.69,3.691,3.701,3.717,3.729,3.738,3.75,3.77,3.783,3.785,3.781,3.78,3.785,3.791,3.79,3.79,3.795,3.795,3.791,3.791,3.783,3.783,3.771,3.758,3.74,3.729,3.709,3.686,3.656,3.64,3.643,3.637,3.62,3.607,3.605,3.611,3.6,3.615,3.627,3.639,3.648,3.648,3.662,3.67,3.668,3.678,3.686,3.691,3.701,3.707,3.709,3.709,3.705,3.695,3.688,3.678,3.666,3.652,3.637,3.623,3.615,3.605,3.604,3.6,3.598,3.594,3.594,3.588,3.578,3.564,3.549,3.545,3.545,3.543,3.543,3.541,3.545,3.557,3.562,3.57,3.58,3.586,3.592,3.592,3.584,3.584,3.588,3.592,3.592,3.584,3.592,3.6,3.605,3.607,3.611,3.611,3.617,3.62,3.623,3.625,3.625,3.629,3.63,3.63,3.63,3.629,3.625,3.621,3.617,3.617,3.613,3.615,3.617,3.617,3.615,3.613,3.621,3.623,3.615,3.617,3.617,3.617,3.613,3.61,3.61,3.61,3.61,3.607,3.604,3.604,3.604,3.61,3.605,3.594,3.586,3.578,3.592,3.625,3.701,3.96,4.457,5.06,5.457,5.633,5.773,5.816,5.816,5.812,5.805,5.85,5.887,5.887,5.895,5.895,5.89,5.887,5.89,5.9,5.89,5.875,5.855,5.85,5.844,5.832,5.79,5.773,5.766,5.766,5.76,5.754,5.74,5.734,5.742,5.758,5.77,5.785,5.797,5.82,5.836,5.844,5.855,5.867,5.88,5.895,5.902,5.902,5.902,5.906,5.914,5.926,5.926,5.934,5.945,5.95,5.957,5.97,5.97,5.977,5.973,5.97,6.023,6.05,6.066,6.094,6.117,6.13,6.13,6.125,6.125,6.137,6.13,6.117,6.098,6.04,6.0,5.883,5.836,5.797,5.67,5.49,5.055,4.418,3.805,3.406,3.291,3.256,3.234,3.244,3.264,3.271,3.273,3.268,3.246,3.24,3.24,3.242,3.246,3.25,3.264,3.271,3.264,3.244,3.24,3.242,3.242,3.234,3.227,3.22,3.219,3.207,3.193,3.178,3.158,3.143,3.139,3.139,3.121,3.1,3.076,3.059,3.043,3.021,3.004,2.992,2.979,2.96,2.945,2.926,2.91,2.895,2.885,2.875,2.857,2.84,2.83,2.816,2.803,2.783,2.76,2.744,2.717,2.688,2.666,2.648,2.639,2.633,2.633,2.639,2.639,2.637,2.639,2.633,2.621,2.611,2.6,2.592,2.584,2.59,2.594,2.596,2.598,2.572,2.588
1.117,1.102,1.075,1.058,1.04,1.023,1.011,1.007,1.008,1.013,1.013,1.015,1.014,1.013,1.014,1.018,1.0205,1.023,1.024,1.024,1.027,1.029,1.03,1.031,1.033,1.035,1.036,1.039,1.041,1.043,1.045,1.047,1.049,1.051,1.054,1.055,1.058,1.059,1.061,1.0625,1.064,1.067,1.071,1.074,1.076,1.077,1.078,1.081,1.083,1.084,1.087,1.09,1.093,1.096,1.098,1.099,1.103,1.1045,1.107,1.11,1.113,1.115,1.117,1.121,1.122,1.122,1.125,1.126,1.129,1.131,1.132,1.136,1.14,1.143,1.145,1.147,1.148,1.15,1.152,1.155,1.158,1.16,1.162,1.164,1.169,1.171,1.175,1.177,1.179,1.182,1.184,1.186,1.187,1.188,1.191,1.192,1.195,1.2,1.202,1.205,1.208,1.214,1.22,1.227,1.229,1.229,1.233,1.241,1.247,1.246,1.246,1.254,1.257,1.256,1.263,1.274,1.276,1.282,1.298,1.373,1.541,1.977,2.643,3.248,3.602,3.752,3.77,3.797,3.832,3.85,3.86,3.867,3.877,3.88,3.867,3.854,3.83,3.814,3.799,3.783,3.77,3.77,3.77,3.766,3.758,3.76,3.758,3.762,3.766,3.766,3.76,3.752,3.744,3.744,3.742,3.725,3.701,3.688,3.674,3.666,3.662,3.66,3.656,3.65,3.64,3.635,3.627,3.61,3.596,3.58,3.574,3.562,3.55,3.543,3.537,3.537,3.531,3.531,3.531,3.531,3.531,3.531,3.535,3.545,3.56,3.576,3.586,3.592,3.605,3.62,3.627,3.633,3.637,3.652,3.664,3.68,3.684,3.688,3.69,3.7,3.71,3.72,3.727,3.742,3.756,3.775,3.78,3.78,3.78,3.787,3.795,3.799,3.799,3.799,3.805,3.807,3.8,3.795,3.787,3.777,3.764,3.748,3.73,3.717,3.691,3.658,3.66,3.654,3.646,3.635,3.625,3.625,3.633,3.633,3.627,3.643,3.658,3.662,3.668,3.678,3.69,3.707,3.707,3.701,3.697,3.703,3.713,3.72,3.725,3.727,3.717,3.717,3.713,3.71,3.707,3.707,3.701,3.7,3.7,3.7,3.7,3.701,3.697,3.697,3.695,3.688,3.676,3.666,3.654,3.646,3.64,3.637,3.63,3.625,3.621,3.615,3.613,3.611,3.61,3.604,3.604,3.607,3.607,3.605,3.607,3.602,3.607,3.607,3.611,3.615,3.615,3.615,3.617,3.623,3.625,3.625,3.625,3.63,3.63,3.63,3.63,3.63,3.63,3.627,3.625,3.62,3.62,3.615,3.617,3.62,3.62,3.62,3.621,3.63,3.63,3.629,3.625,3.623,3.625,3.62,3.615,3.611,3.611,3.62,3.615,3.607,3.605,3.607,3.615,3.615,3.605,3.6,3.584,3.602,3.633,3.709,3.951,4.418,5.03,5.445,5.64,5.77,5.816,5.83,5.824,5.824,5.87,5.906,5.91,5.92,5.93,5.926,5.92,5.93,5.94,5.94,5.918,5.902,5.9,5.887,5.86,5.83,5.82,5.816,5.816,5.824,5.82,5.816,5.816,5.824,5.848,5.86,5.875,5.895,5.914,5.93,5.938,5.957,5.98,5.984,5.99,5.99,5.984,5.984,5.984,5.992,6.0,6.0,6.01,6.027,6.04,6.05,6.06,6.062,6.066,6.066,6.082,6.113,6.125,6.14,6.16,6.168,6.168,6.16,6.156,6.16,6.164,6.164,6.156,6.12,6.062,6.02,5.902,5.86,5.836,5.7,5.496,5.04,4.402,3.783,3.4,3.29,3.258,3.236,3.248,3.27,3.275,3.277,3.268,3.254,3.242,3.242,3.24,3.244,3.248,3.268,3.271,3.266,3.244,3.24,3.248,3.244,3.238,3.227,3.225,3.22,3.21,3.195,3.18,3.164,3.145,3.14,3.14,3.123,3.104,3.082,3.064,3.047,3.025,3.01,2.998,2.982,2.963,2.947,2.93,2.916,2.9,2.889,2.879,2.861,2.844,2.834,2.822,2.807,2.785,2.762,2.748,2.719,2.691,2.67,2.654,2.643,2.637,2.637,2.643,2.639,2.637,2.639,2.635,2.625,2.611,2.6,2.592,2.584,2.588,2.592,2.592,2.594,2.57,2.582
1.117,1.102,1.074,1.057,1.039,1.022,1.011,1.008,1.009,1.013,1.013,1.014,1.014,1.013,1.014,1.018,1.0205,1.024,1.024,1.024,1.027,1.029,1.03,1.031,1.032,1.034,1.036,1.038,1.04,1.042,1.044,1.046,1.048,1.052,1.054,1.055,1.056,1.059,1.061,1.0625,1.063,1.066,1.071,1.073,1.074,1.076,1.078,1.081,1.082,1.084,1.086,1.089,1.093,1.094,1.097,1.099,1.102,1.1045,1.107,1.11,1.113,1.115,1.117,1.121,1.122,1.123,1.124,1.127,1.129,1.132,1.133,1.136,1.14,1.142,1.145,1.146,1.148,1.15,1.153,1.154,1.158,1.16,1.161,1.164,1.168,1.171,1.175,1.177,1.179,1.182,1.184,1.185,1.187,1.189,1.191,1.193,1.196,1.2,1.203,1.206,1.209,1.215,1.22,1.227,1.229,1.2295,1.232,1.241,1.249,1.248,1.245,1.253,1.258,1.257,1.262,1.274,1.278,1.28,1.291,1.36,1.503,1.868,2.504,3.145,3.56,3.744,3.762,3.791,3.83,3.848,3.86,3.867,3.877,3.879,3.871,3.854,3.838,3.82,3.803,3.787,3.78,3.768,3.77,3.771,3.768,3.768,3.768,3.768,3.768,3.771,3.764,3.758,3.75,3.744,3.744,3.725,3.693,3.672,3.652,3.64,3.63,3.629,3.627,3.621,3.615,3.607,3.6,3.586,3.574,3.562,3.555,3.545,3.541,3.537,3.543,3.543,3.54,3.535,3.533,3.533,3.531,3.531,3.535,3.547,3.56,3.576,3.588,3.598,3.61,3.625,3.63,3.635,3.643,3.654,3.67,3.68,3.688,3.69,3.69,3.697,3.71,3.719,3.727,3.734,3.752,3.77,3.771,3.773,3.775,3.781,3.793,3.797,3.8,3.805,3.807,3.809,3.805,3.799,3.793,3.781,3.768,3.75,3.734,3.713,3.686,3.658,3.65,3.639,3.629,3.617,3.613,3.62,3.625,3.63,3.63,3.639,3.654,3.662,3.666,3.676,3.688,3.697,3.705,3.707,3.705,3.71,3.707,3.713,3.713,3.719,3.717,3.717,3.717,3.717,3.719,3.719,3.72,3.72,3.72,3.72,3.723,3.72,3.723,3.72,3.715,3.713,3.703,3.691,3.684,3.672,3.664,3.654,3.643,3.635,3.627,3.617,3.611,3.611,3.611,3.61,3.61,3.605,3.604,3.604,3.605,3.61,3.611,3.611,3.615,3.617,3.62,3.62,3.62,3.623,3.625,3.629,3.629,3.629,3.63,3.629,3.629,3.63,3.629,3.625,3.62,3.617,3.617,3.613,3.617,3.617,3.62,3.62,3.621,3.629,3.629,3.629,3.627,3.623,3.625,3.62,3.617,3.615,3.617,3.62,3.62,3.61,3.604,3.607,3.615,3.62,3.61,3.604,3.588,3.61,3.637,3.709,3.922,4.383,5.008,5.453,5.668,5.777,5.83,5.844,5.848,5.85,5.9,5.93,5.938,5.953,5.965,5.965,5.965,5.973,5.984,5.99,5.96,5.957,5.957,5.953,5.918,5.887,5.887,5.887,5.895,5.9,5.9,5.906,5.918,5.93,5.938,5.953,5.965,5.977,5.996,6.01,6.02,6.027,6.035,6.027,6.03,6.027,6.023,6.02,6.02,6.03,6.04,6.04,6.05,6.07,6.08,6.09,6.11,6.117,6.117,6.12,6.137,6.152,6.168,6.176,6.19,6.19,6.188,6.168,6.16,6.156,6.164,6.184,6.168,6.133,6.08,6.027,5.91,5.875,5.863,5.727,5.496,5.023,4.383,3.748,3.39,3.29,3.256,3.24,3.248,3.27,3.277,3.277,3.273,3.27,3.254,3.25,3.248,3.25,3.256,3.268,3.275,3.27,3.252,3.242,3.248,3.246,3.24,3.232,3.229,3.225,3.215,3.201,3.184,3.166,3.148,3.146,3.145,3.129,3.107,3.084,3.066,3.047,3.025,3.012,3.0,2.982,2.967,2.951,2.934,2.92,2.902,2.893,2.883,2.867,2.848,2.838,2.826,2.809,2.787,2.766,2.748,2.723,2.693,2.674,2.656,2.648,2.639,2.64,2.646,2.643,2.637,2.64,2.639,2.627,2.615,2.607,2.598,2.59,2.594,2.596,2.596,2.59,2.568,2.578
1.115,1.101,1.072,1.054,1.036,1.02,1.01,1.006,1.008,1.012,1.013,1.014,1.012,1.012,1.014,1.016,1.02,1.022,1.023,1.023,1.025,1.028,1.028,1.028,1.03,1.031,1.034,1.035,1.038,1.039,1.041,1.043,1.046,1.049,1.052,1.053,1.054,1.057,1.058,1.059,1.062,1.064,1.068,1.071,1.074,1.074,1.077,1.079,1.08,1.081,1.083,1.087,1.09,1.093,1.094,1.097,1.1,1.103,1.105,1.108,1.111,1.113,1.116,1.119,1.12,1.12,1.123,1.125,1.126,1.128,1.131,1.134,1.137,1.139,1.142,1.144,1.1455,1.148,1.149,1.152,1.154,1.157,1.159,1.162,1.166,1.169,1.172,1.175,1.177,1.18,1.182,1.183,1.185,1.1875,1.19,1.192,1.195,1.199,1.203,1.205,1.208,1.215,1.22,1.227,1.229,1.2295,1.233,1.241,1.25,1.248,1.246,1.254,1.261,1.26,1.267,1.281,1.283,1.284,1.293,1.3545,1.477,1.783,2.396,3.05,3.518,3.738,3.768,3.793,3.83,3.848,3.863,3.873,3.88,3.879,3.875,3.863,3.846,3.832,3.814,3.803,3.79,3.781,3.773,3.783,3.777,3.775,3.775,3.777,3.777,3.781,3.777,3.77,3.758,3.756,3.75,3.729,3.693,3.666,3.643,3.629,3.617,3.605,3.6,3.6,3.594,3.59,3.582,3.57,3.56,3.549,3.543,3.543,3.543,3.545,3.547,3.549,3.547,3.545,3.545,3.543,3.537,3.537,3.541,3.553,3.564,3.582,3.592,3.602,3.615,3.627,3.635,3.643,3.65,3.66,3.674,3.686,3.691,3.691,3.695,3.701,3.715,3.72,3.727,3.738,3.756,3.771,3.775,3.777,3.78,3.787,3.8,3.805,3.809,3.809,3.812,3.812,3.81,3.803,3.797,3.79,3.775,3.762,3.742,3.723,3.691,3.668,3.654,3.637,3.627,3.617,3.613,3.623,3.629,3.633,3.64,3.645,3.654,3.666,3.67,3.682,3.693,3.703,3.709,3.709,3.709,3.71,3.719,3.719,3.719,3.723,3.723,3.72,3.717,3.717,3.723,3.723,3.727,3.729,3.73,3.73,3.732,3.732,3.73,3.725,3.72,3.713,3.705,3.69,3.678,3.67,3.66,3.65,3.64,3.633,3.629,3.625,3.62,3.613,3.61,3.607,3.607,3.607,3.602,3.602,3.61,3.613,3.611,3.611,3.611,3.613,3.613,3.613,3.613,3.617,3.623,3.621,3.62,3.62,3.617,3.62,3.617,3.617,3.617,3.613,3.607,3.605,3.605,3.602,3.604,3.605,3.607,3.61,3.611,3.62,3.62,3.617,3.615,3.611,3.611,3.613,3.604,3.605,3.605,3.611,3.61,3.604,3.598,3.598,3.605,3.607,3.602,3.598,3.588,3.61,3.633,3.707,3.885,4.336,4.973,5.457,5.69,5.793,5.848,5.87,5.883,5.9,5.945,5.977,5.98,5.996,6.016,6.023,6.023,6.03,6.043,6.047,6.035,6.027,6.035,6.04,6.03,6.008,5.99,5.973,5.98,5.99,5.99,6.0,6.01,6.023,6.035,6.047,6.05,6.055,6.062,6.07,6.066,6.07,6.074,6.062,6.062,6.062,6.05,6.043,6.043,6.055,6.062,6.062,6.07,6.09,6.1,6.105,6.12,6.13,6.13,6.13,6.137,6.152,6.18,6.188,6.2,6.203,6.188,6.164,6.156,6.152,6.16,6.184,6.168,6.137,6.082,6.03,5.914,5.875,5.875,5.727,5.48,4.996,4.34,3.705,3.373,3.281,3.248,3.23,3.242,3.258,3.264,3.264,3.26,3.258,3.256,3.242,3.242,3.244,3.25,3.264,3.27,3.266,3.248,3.24,3.244,3.24,3.234,3.227,3.223,3.223,3.213,3.2,3.18,3.164,3.148,3.143,3.139,3.123,3.105,3.082,3.064,3.045,3.023,3.008,2.998,2.984,2.967,2.951,2.932,2.918,2.902,2.89,2.88,2.863,2.846,2.836,2.824,2.809,2.785,2.762,2.748,2.723,2.693,2.674,2.658,2.648,2.64,2.645,2.648,2.643,2.639,2.64,2.64,2.633,2.625,2.615,2.607,2.6,2.604,2.605,2.604,2.594,2.57,2.574
1.115,1.099,1.07,1.052,1.034,1.018,1.008,1.004,1.006,1.01,1.012,1.012,1.011,1.011,1.012,1.015,1.018,1.0205,1.021,1.0205,1.023,1.025,1.026,1.026,1.027,1.029,1.031,1.034,1.036,1.038,1.039,1.041,1.044,1.047,1.049,1.05,1.052,1.055,1.057,1.058,1.061,1.063,1.066,1.07,1.072,1.074,1.075,1.077,1.079,1.08,1.082,1.085,1.089,1.091,1.093,1.096,1.098,1.102,1.1045,1.106,1.11,1.112,1.114,1.117,1.119,1.119,1.12,1.122,1.124,1.127,1.128,1.132,1.135,1.137,1.139,1.141,1.143,1.145,1.146,1.15,1.152,1.154,1.157,1.16,1.163,1.167,1.17,1.172,1.175,1.178,1.18,1.182,1.184,1.187,1.188,1.191,1.194,1.198,1.202,1.204,1.207,1.214,1.22,1.226,1.228,1.229,1.233,1.241,1.249,1.249,1.248,1.255,1.262,1.262,1.2705,1.282,1.288,1.288,1.292,1.349,1.455,1.704,2.291,2.959,3.459,3.738,3.773,3.799,3.832,3.85,3.865,3.875,3.883,3.879,3.877,3.87,3.854,3.842,3.826,3.812,3.8,3.795,3.79,3.787,3.795,3.79,3.79,3.793,3.795,3.799,3.79,3.78,3.775,3.775,3.764,3.742,3.705,3.674,3.643,3.627,3.615,3.602,3.598,3.594,3.59,3.584,3.578,3.566,3.557,3.547,3.543,3.543,3.535,3.541,3.545,3.55,3.549,3.549,3.553,3.555,3.545,3.547,3.549,3.56,3.574,3.592,3.6,3.605,3.62,3.629,3.64,3.646,3.656,3.67,3.682,3.691,3.697,3.7,3.701,3.71,3.719,3.727,3.734,3.748,3.764,3.78,3.785,3.787,3.79,3.797,3.807,3.812,3.814,3.81,3.812,3.816,3.812,3.807,3.797,3.791,3.781,3.768,3.75,3.729,3.697,3.672,3.654,3.637,3.629,3.623,3.62,3.623,3.629,3.635,3.643,3.65,3.658,3.668,3.674,3.686,3.697,3.709,3.715,3.72,3.72,3.723,3.727,3.73,3.736,3.736,3.736,3.729,3.729,3.729,3.73,3.729,3.725,3.729,3.736,3.738,3.738,3.738,3.736,3.73,3.719,3.71,3.703,3.69,3.68,3.674,3.666,3.658,3.65,3.643,3.635,3.629,3.621,3.615,3.611,3.615,3.617,3.617,3.615,3.615,3.62,3.62,3.611,3.611,3.611,3.611,3.61,3.61,3.61,3.611,3.613,3.611,3.605,3.607,3.605,3.61,3.61,3.61,3.605,3.604,3.6,3.6,3.596,3.594,3.598,3.6,3.602,3.604,3.605,3.611,3.615,3.61,3.607,3.605,3.605,3.602,3.6,3.6,3.598,3.604,3.605,3.598,3.588,3.59,3.6,3.6,3.598,3.594,3.584,3.605,3.63,3.7,3.848,4.277,4.926,5.438,5.7,5.816,5.87,5.914,5.934,5.945,6.004,6.035,6.04,6.055,6.07,6.08,6.082,6.094,6.105,6.113,6.113,6.113,6.117,6.117,6.117,6.12,6.113,6.1,6.09,6.07,6.074,6.08,6.09,6.094,6.105,6.105,6.113,6.117,6.125,6.125,6.117,6.12,6.12,6.105,6.08,6.074,6.066,6.055,6.055,6.06,6.062,6.06,6.074,6.105,6.105,6.105,6.117,6.12,6.117,6.113,6.125,6.137,6.156,6.17,6.184,6.19,6.176,6.156,6.145,6.145,6.156,6.17,6.156,6.125,6.07,6.01,5.9,5.855,5.85,5.715,5.457,4.973,4.3,3.67,3.354,3.264,3.232,3.21,3.229,3.242,3.244,3.244,3.242,3.242,3.244,3.234,3.229,3.23,3.24,3.25,3.258,3.254,3.238,3.23,3.232,3.23,3.22,3.215,3.209,3.21,3.197,3.186,3.17,3.152,3.137,3.13,3.127,3.111,3.094,3.074,3.059,3.04,3.016,3.002,2.988,2.977,2.96,2.945,2.926,2.91,2.896,2.885,2.875,2.857,2.838,2.83,2.816,2.8,2.78,2.754,2.74,2.717,2.69,2.67,2.652,2.645,2.637,2.64,2.645,2.639,2.637,2.639,2.64,2.633,2.621,2.613,2.607,2.6,2.605,2.605,2.604,2.596,2.57,2.572
1.115,1.1,1.071,1.053,1.034,1.017,1.008,1.004,1.005,1.01,1.011,1.011,1.011,1.011,1.013,1.015,1.019,1.0205,1.021,1.021,1.024,1.027,1.027,1.028,1.028,1.03,1.032,1.035,1.037,1.039,1.04,1.042,1.045,1.048,1.051,1.052,1.054,1.056,1.058,1.06,1.062,1.064,1.069,1.072,1.073,1.075,1.077,1.078,1.08,1.081,1.084,1.087,1.091,1.093,1.095,1.098,1.1,1.103,1.105,1.107,1.11,1.113,1.116,1.119,1.12,1.12,1.122,1.123,1.125,1.128,1.129,1.132,1.136,1.138,1.14,1.142,1.144,1.1455,1.148,1.15,1.152,1.154,1.156,1.16,1.164,1.167,1.17,1.173,1.174,1.178,1.18,1.183,1.184,1.1875,1.189,1.192,1.195,1.198,1.202,1.204,1.207,1.214,1.22,1.226,1.228,1.2295,1.233,1.242,1.249,1.25,1.25,1.257,1.264,1.265,1.275,1.279,1.291,1.289,1.292,1.34,1.4375,1.638,2.19,2.86,3.402,3.727,3.771,3.799,3.832,3.85,3.865,3.875,3.88,3.88,3.871,3.871,3.86,3.846,3.838,3.818,3.81,3.805,3.8,3.793,3.799,3.799,3.8,3.805,3.81,3.814,3.8,3.791,3.79,3.783,3.775,3.754,3.717,3.686,3.652,3.627,3.613,3.607,3.6,3.598,3.592,3.588,3.584,3.572,3.564,3.557,3.549,3.549,3.547,3.547,3.55,3.555,3.555,3.557,3.562,3.557,3.555,3.555,3.557,3.568,3.584,3.596,3.607,3.613,3.625,3.635,3.646,3.652,3.66,3.674,3.69,3.697,3.7,3.701,3.703,3.713,3.72,3.727,3.732,3.744,3.762,3.777,3.785,3.785,3.79,3.8,3.812,3.814,3.814,3.81,3.81,3.814,3.809,3.807,3.797,3.787,3.775,3.76,3.746,3.725,3.697,3.67,3.646,3.629,3.62,3.613,3.61,3.62,3.62,3.627,3.637,3.648,3.654,3.662,3.666,3.68,3.693,3.705,3.713,3.717,3.717,3.72,3.725,3.725,3.727,3.727,3.727,3.725,3.725,3.725,3.727,3.725,3.729,3.73,3.729,3.725,3.729,3.732,3.727,3.727,3.715,3.709,3.7,3.691,3.684,3.676,3.668,3.66,3.648,3.637,3.629,3.625,3.621,3.62,3.617,3.617,3.621,3.621,3.62,3.62,3.617,3.613,3.61,3.605,3.605,3.605,3.605,3.605,3.605,3.607,3.607,3.605,3.605,3.602,3.604,3.605,3.605,3.605,3.605,3.602,3.6,3.6,3.598,3.594,3.598,3.6,3.605,3.605,3.605,3.617,3.62,3.613,3.607,3.605,3.605,3.605,3.598,3.598,3.602,3.61,3.604,3.598,3.596,3.594,3.6,3.605,3.602,3.6,3.592,3.611,3.635,3.695,3.832,4.242,4.887,5.406,5.703,5.832,5.895,5.94,5.96,5.99,6.043,6.074,6.074,6.09,6.11,6.125,6.13,6.145,6.156,6.164,6.164,6.176,6.176,6.17,6.164,6.164,6.164,6.16,6.16,6.156,6.137,6.13,6.12,6.13,6.14,6.145,6.15,6.156,6.16,6.164,6.16,6.164,6.14,6.113,6.105,6.1,6.094,6.086,6.08,6.08,6.074,6.066,6.074,6.09,6.098,6.11,6.117,6.117,6.113,6.1,6.105,6.13,6.14,6.156,6.168,6.17,6.152,6.14,6.133,6.133,6.14,6.15,6.14,6.11,6.06,6.008,5.895,5.855,5.844,5.71,5.46,4.965,4.28,3.652,3.348,3.26,3.229,3.209,3.227,3.24,3.242,3.24,3.24,3.246,3.242,3.234,3.229,3.23,3.238,3.25,3.258,3.252,3.234,3.225,3.232,3.229,3.219,3.213,3.207,3.209,3.195,3.184,3.168,3.15,3.137,3.13,3.125,3.111,3.092,3.074,3.059,3.037,3.016,3.002,2.988,2.977,2.96,2.945,2.928,2.914,2.9,2.885,2.875,2.857,2.84,2.832,2.818,2.803,2.78,2.754,2.742,2.717,2.691,2.67,2.654,2.646,2.64,2.646,2.65,2.646,2.639,2.645,2.645,2.633,2.623,2.611,2.607,2.6,2.602,2.605,2.602,2.596,2.57,2.574
1.118,1.102,1.073,1.054,1.035,1.019,1.009,1.006,1.009,1.014,1.014,1.015,1.014,1.013,1.015,1.018,1.0205,1.023,1.024,1.025,1.027,1.029,1.029,1.03,1.032,1.032,1.035,1.037,1.04,1.041,1.043,1.044,1.047,1.051,1.052,1.054,1.055,1.058,1.06,1.062,1.0625,1.066,1.07,1.072,1.075,1.075,1.077,1.081,1.081,1.082,1.084,1.088,1.091,1.094,1.096,1.098,1.1,1.103,1.106,1.109,1.11,1.114,1.117,1.12,1.121,1.121,1.122,1.124,1.127,1.128,1.13,1.133,1.136,1.138,1.14,1.142,1.144,1.1455,1.148,1.15,1.153,1.155,1.158,1.16,1.164,1.168,1.17,1.174,1.176,1.178,1.181,1.182,1.185,1.1875,1.19,1.192,1.196,1.2,1.203,1.206,1.209,1.215,1.221,1.227,1.229,1.2295,1.234,1.243,1.249,1.251,1.253,1.258,1.265,1.266,1.276,1.282,1.294,1.292,1.293,1.335,1.423,1.59,2.094,2.746,3.346,3.71,3.76,3.79,3.822,3.84,3.857,3.865,3.87,3.87,3.861,3.855,3.852,3.838,3.826,3.81,3.803,3.799,3.797,3.793,3.785,3.793,3.797,3.805,3.81,3.812,3.799,3.791,3.793,3.79,3.781,3.756,3.723,3.69,3.656,3.627,3.61,3.594,3.594,3.588,3.584,3.582,3.578,3.574,3.566,3.559,3.557,3.549,3.545,3.553,3.557,3.559,3.56,3.564,3.564,3.564,3.555,3.555,3.559,3.57,3.584,3.6,3.607,3.613,3.625,3.637,3.645,3.652,3.66,3.674,3.684,3.695,3.697,3.695,3.697,3.703,3.707,3.713,3.72,3.732,3.746,3.762,3.768,3.773,3.777,3.787,3.799,3.805,3.805,3.807,3.807,3.814,3.812,3.807,3.803,3.793,3.783,3.77,3.75,3.732,3.703,3.678,3.658,3.64,3.63,3.625,3.625,3.63,3.633,3.635,3.643,3.656,3.662,3.668,3.674,3.688,3.697,3.713,3.719,3.725,3.725,3.727,3.732,3.73,3.73,3.732,3.727,3.725,3.72,3.719,3.717,3.723,3.725,3.729,3.73,3.73,3.73,3.729,3.725,3.72,3.717,3.709,3.701,3.691,3.684,3.676,3.668,3.656,3.648,3.646,3.64,3.639,3.637,3.633,3.633,3.635,3.639,3.639,3.633,3.633,3.63,3.627,3.623,3.621,3.621,3.62,3.617,3.617,3.613,3.62,3.62,3.613,3.613,3.611,3.613,3.613,3.617,3.617,3.615,3.611,3.607,3.607,3.605,3.602,3.605,3.607,3.611,3.611,3.615,3.621,3.621,3.621,3.617,3.611,3.613,3.613,3.611,3.611,3.611,3.617,3.615,3.61,3.604,3.6,3.605,3.613,3.61,3.604,3.6,3.617,3.637,3.695,3.828,4.22,4.867,5.39,5.703,5.844,5.914,5.97,5.996,6.023,6.082,6.117,6.117,6.125,6.137,6.14,6.145,6.164,6.18,6.184,6.184,6.19,6.188,6.184,6.176,6.176,6.17,6.17,6.17,6.17,6.16,6.16,6.156,6.137,6.14,6.145,6.152,6.16,6.16,6.156,6.133,6.117,6.12,6.1,6.098,6.094,6.086,6.074,6.07,6.07,6.074,6.07,6.08,6.09,6.09,6.094,6.11,6.1,6.098,6.08,6.08,6.105,6.117,6.133,6.145,6.145,6.133,6.113,6.105,6.105,6.117,6.125,6.12,6.1,6.05,6.004,5.906,5.863,5.844,5.723,5.492,4.99,4.285,3.643,3.342,3.26,3.227,3.205,3.22,3.234,3.234,3.232,3.229,3.236,3.238,3.234,3.225,3.227,3.234,3.246,3.25,3.246,3.227,3.219,3.22,3.219,3.21,3.2,3.197,3.201,3.19,3.174,3.158,3.143,3.125,3.12,3.12,3.104,3.084,3.064,3.05,3.033,3.008,2.994,2.982,2.97,2.955,2.94,2.924,2.91,2.895,2.883,2.87,2.852,2.836,2.826,2.814,2.799,2.775,2.752,2.738,2.717,2.691,2.67,2.654,2.643,2.643,2.648,2.652,2.65,2.64,2.646,2.646,2.637,2.623,2.611,2.607,2.6,2.602,2.602,2.602,2.596,2.57,2.576
1.12,1.105,1.076,1.058,1.037,1.021,1.012,1.009,1.011,1.017,1.016,1.017,1.017,1.016,1.019,1.0205,1.024,1.027,1.028,1.029,1.03,1.033,1.033,1.034,1.034,1.036,1.037,1.04,1.042,1.043,1.045,1.047,1.05,1.052,1.055,1.056,1.057,1.06,1.062,1.0625,1.064,1.066,1.071,1.074,1.075,1.077,1.078,1.08,1.081,1.082,1.084,1.088,1.091,1.094,1.096,1.098,1.101,1.104,1.106,1.109,1.111,1.114,1.117,1.12,1.121,1.121,1.123,1.125,1.127,1.128,1.13,1.134,1.136,1.139,1.141,1.142,1.145,1.1455,1.149,1.151,1.154,1.155,1.159,1.16,1.165,1.169,1.171,1.174,1.176,1.179,1.181,1.183,1.186,1.188,1.191,1.194,1.197,1.201,1.204,1.206,1.21,1.216,1.223,1.229,1.2295,1.232,1.236,1.244,1.25,1.253,1.256,1.26,1.267,1.268,1.276,1.284,1.295,1.294,1.292,1.33,1.41,1.549,1.982,2.63,3.275,3.688,3.742,3.771,3.805,3.822,3.84,3.85,3.855,3.85,3.846,3.836,3.828,3.816,3.803,3.793,3.787,3.783,3.781,3.783,3.775,3.773,3.781,3.787,3.797,3.797,3.79,3.783,3.785,3.785,3.78,3.754,3.719,3.691,3.658,3.63,3.613,3.598,3.598,3.596,3.59,3.592,3.586,3.584,3.582,3.576,3.574,3.57,3.566,3.566,3.572,3.572,3.572,3.572,3.572,3.568,3.557,3.557,3.557,3.57,3.578,3.594,3.607,3.613,3.623,3.635,3.643,3.648,3.656,3.666,3.68,3.688,3.69,3.69,3.693,3.697,3.7,3.701,3.71,3.723,3.738,3.754,3.756,3.758,3.762,3.771,3.783,3.797,3.797,3.807,3.81,3.816,3.818,3.818,3.816,3.807,3.797,3.785,3.77,3.748,3.72,3.695,3.676,3.662,3.65,3.645,3.643,3.645,3.645,3.645,3.646,3.662,3.668,3.676,3.68,3.69,3.701,3.71,3.719,3.723,3.729,3.73,3.734,3.736,3.736,3.736,3.734,3.73,3.732,3.73,3.727,3.727,3.732,3.734,3.734,3.734,3.734,3.73,3.729,3.727,3.719,3.715,3.707,3.701,3.69,3.684,3.676,3.668,3.664,3.656,3.654,3.652,3.648,3.646,3.646,3.65,3.652,3.652,3.652,3.652,3.648,3.648,3.645,3.64,3.639,3.635,3.635,3.635,3.633,3.633,3.633,3.63,3.629,3.627,3.627,3.63,3.633,3.633,3.629,3.629,3.623,3.623,3.621,3.613,3.615,3.621,3.621,3.625,3.627,3.633,3.633,3.633,3.629,3.627,3.629,3.629,3.623,3.623,3.627,3.63,3.627,3.621,3.613,3.61,3.617,3.623,3.62,3.61,3.605,3.621,3.643,3.697,3.826,4.203,4.86,5.406,5.715,5.86,5.94,6.008,6.04,6.074,6.133,6.156,6.15,6.156,6.17,6.18,6.19,6.21,6.23,6.234,6.23,6.242,6.24,6.22,6.215,6.215,6.21,6.207,6.207,6.2,6.18,6.164,6.152,6.145,6.15,6.15,6.145,6.137,6.12,6.094,6.082,6.08,6.074,6.05,6.035,6.035,6.035,6.027,6.023,6.027,6.035,6.04,6.047,6.066,6.07,6.066,6.082,6.082,6.07,6.06,6.047,6.086,6.105,6.117,6.13,6.133,6.113,6.094,6.082,6.082,6.094,6.11,6.113,6.094,6.055,6.004,5.902,5.86,5.84,5.734,5.516,5.03,4.285,3.646,3.336,3.254,3.219,3.193,3.209,3.219,3.217,3.213,3.21,3.22,3.223,3.22,3.213,3.215,3.22,3.232,3.238,3.232,3.213,3.203,3.207,3.205,3.195,3.184,3.182,3.184,3.172,3.16,3.143,3.125,3.111,3.105,3.102,3.088,3.068,3.053,3.037,3.02,2.996,2.982,2.97,2.96,2.947,2.93,2.914,2.9,2.887,2.871,2.861,2.844,2.826,2.82,2.807,2.793,2.77,2.746,2.734,2.715,2.69,2.67,2.652,2.64,2.645,2.648,2.652,2.65,2.64,2.645,2.645,2.637,2.625,2.611,2.607,2.598,2.6,2.602,2.6,2.598,2.57,2.578
1.122,1.107,1.078,1.059,1.04,1.022,1.013,1.01,1.012,1.016,1.017,1.017,1.017,1.018,1.019,1.02,1.024,1.027,1.029,1.029,1.031,1.034,1.034,1.034,1.034,1.037,1.038,1.041,1.042,1.043,1.046,1.048,1.05,1.054,1.056,1.057,1.058,1.06,1.062,1.0625,1.064,1.067,1.072,1.075,1.077,1.077,1.078,1.081,1.081,1.083,1.084,1.088,1.092,1.094,1.097,1.098,1.102,1.104,1.106,1.11,1.112,1.115,1.118,1.121,1.122,1.122,1.124,1.125,1.127,1.129,1.13,1.134,1.137,1.139,1.141,1.142,1.144,1.1455,1.149,1.15,1.154,1.155,1.159,1.16,1.165,1.168,1.171,1.174,1.176,1.178,1.182,1.183,1.186,1.188,1.191,1.194,1.198,1.201,1.205,1.206,1.211,1.218,1.223,1.229,1.23,1.232,1.236,1.244,1.25,1.252,1.256,1.262,1.269,1.269,1.277,1.285,1.296,1.295,1.293,1.326,1.399,1.513,1.885,2.518,3.186,3.635,3.725,3.754,3.79,3.81,3.828,3.838,3.844,3.84,3.834,3.83,3.816,3.805,3.797,3.785,3.78,3.78,3.78,3.78,3.771,3.773,3.78,3.783,3.793,3.795,3.787,3.785,3.785,3.785,3.777,3.756,3.727,3.7,3.672,3.648,3.63,3.621,3.621,3.621,3.62,3.613,3.611,3.602,3.6,3.596,3.59,3.586,3.578,3.58,3.582,3.584,3.58,3.582,3.584,3.58,3.566,3.562,3.559,3.57,3.584,3.596,3.607,3.613,3.627,3.639,3.646,3.652,3.66,3.67,3.682,3.69,3.69,3.691,3.695,3.693,3.697,3.703,3.71,3.727,3.738,3.75,3.754,3.758,3.758,3.768,3.78,3.79,3.799,3.807,3.812,3.818,3.822,3.824,3.822,3.816,3.807,3.793,3.777,3.76,3.73,3.693,3.676,3.664,3.652,3.645,3.639,3.639,3.629,3.627,3.637,3.652,3.662,3.67,3.674,3.684,3.693,3.705,3.71,3.717,3.719,3.72,3.727,3.729,3.73,3.732,3.729,3.729,3.729,3.73,3.725,3.727,3.729,3.732,3.734,3.732,3.732,3.729,3.725,3.723,3.713,3.709,3.703,3.695,3.688,3.68,3.674,3.668,3.666,3.658,3.656,3.652,3.648,3.646,3.645,3.648,3.65,3.65,3.65,3.65,3.652,3.65,3.646,3.646,3.643,3.639,3.64,3.639,3.637,3.635,3.635,3.63,3.63,3.63,3.63,3.63,3.633,3.633,3.633,3.63,3.629,3.625,3.625,3.62,3.623,3.625,3.627,3.63,3.63,3.635,3.637,3.635,3.63,3.63,3.63,3.63,3.629,3.627,3.63,3.633,3.63,3.627,3.621,3.613,3.621,3.625,3.623,3.615,3.61,3.621,3.643,3.691,3.82,4.168,4.84,5.406,5.72,5.87,5.957,6.023,6.06,6.094,6.156,6.184,6.18,6.184,6.2,6.21,6.223,6.242,6.26,6.273,6.266,6.273,6.28,6.25,6.24,6.242,6.234,6.234,6.215,6.188,6.168,6.152,6.15,6.15,6.15,6.13,6.11,6.094,6.09,6.082,6.062,6.055,6.047,6.023,6.02,6.02,6.02,6.01,6.008,6.016,6.016,6.016,6.027,6.047,6.05,6.05,6.062,6.066,6.055,6.043,6.035,6.066,6.086,6.094,6.1,6.11,6.098,6.074,6.06,6.055,6.066,6.086,6.09,6.07,6.043,5.984,5.89,5.848,5.832,5.73,5.52,5.055,4.31,3.654,3.328,3.242,3.21,3.188,3.203,3.215,3.215,3.209,3.209,3.217,3.219,3.215,3.21,3.21,3.215,3.223,3.227,3.223,3.205,3.197,3.201,3.195,3.186,3.178,3.178,3.176,3.168,3.154,3.135,3.117,3.107,3.104,3.098,3.084,3.066,3.049,3.033,3.016,2.994,2.979,2.969,2.957,2.943,2.928,2.912,2.896,2.883,2.87,2.855,2.838,2.824,2.816,2.805,2.791,2.768,2.746,2.734,2.715,2.691,2.67,2.654,2.64,2.648,2.652,2.658,2.652,2.646,2.65,2.652,2.64,2.629,2.621,2.61,2.6,2.604,2.604,2.602,2.6,2.572,2.58
1.124,1.108,1.079,1.061,1.04,1.023,1.013,1.011,1.013,1.017,1.017,1.017,1.017,1.018,1.018,1.0205,1.024,1.026,1.028,1.029,1.032,1.034,1.034,1.034,1.035,1.036,1.039,1.041,1.042,1.044,1.046,1.048,1.05,1.053,1.056,1.057,1.058,1.061,1.062,1.0625,1.065,1.068,1.072,1.074,1.076,1.077,1.079,1.081,1.083,1.083,1.084,1.088,1.093,1.095,1.097,1.1,1.102,1.1045,1.107,1.109,1.113,1.116,1.119,1.122,1.123,1.123,1.124,1.125,1.127,1.13,1.131,1.135,1.137,1.14,1.141,1.143,1.1455,1.146,1.149,1.151,1.154,1.156,1.158,1.16,1.165,1.168,1.171,1.174,1.176,1.179,1.18,1.183,1.186,1.188,1.191,1.194,1.197,1.201,1.204,1.206,1.21,1.216,1.223,1.228,1.23,1.232,1.237,1.244,1.25,1.252,1.258,1.262,1.268,1.268,1.275,1.284,1.295,1.293,1.29,1.319,1.388,1.482,1.796,2.406,3.082,3.553,3.705,3.74,3.777,3.8,3.818,3.832,3.838,3.836,3.826,3.82,3.812,3.803,3.791,3.78,3.777,3.777,3.78,3.78,3.777,3.78,3.783,3.791,3.791,3.791,3.791,3.785,3.785,3.785,3.775,3.754,3.73,3.709,3.684,3.662,3.648,3.639,3.643,3.643,3.639,3.63,3.625,3.617,3.613,3.605,3.6,3.594,3.586,3.584,3.586,3.584,3.58,3.576,3.584,3.582,3.572,3.566,3.564,3.57,3.584,3.596,3.607,3.613,3.627,3.643,3.65,3.652,3.66,3.672,3.684,3.69,3.69,3.693,3.691,3.695,3.703,3.709,3.719,3.729,3.738,3.75,3.754,3.754,3.754,3.76,3.773,3.783,3.793,3.8,3.803,3.812,3.818,3.82,3.82,3.814,3.805,3.797,3.78,3.758,3.729,3.695,3.664,3.652,3.639,3.633,3.625,3.625,3.613,3.611,3.627,3.639,3.65,3.656,3.664,3.672,3.682,3.693,3.697,3.701,3.705,3.707,3.715,3.717,3.72,3.72,3.719,3.719,3.717,3.715,3.715,3.717,3.72,3.72,3.725,3.725,3.725,3.72,3.717,3.713,3.707,3.703,3.695,3.686,3.68,3.676,3.67,3.666,3.664,3.656,3.656,3.652,3.648,3.646,3.646,3.646,3.648,3.646,3.648,3.648,3.648,3.646,3.64,3.64,3.639,3.635,3.635,3.635,3.635,3.635,3.635,3.63,3.63,3.627,3.629,3.63,3.633,3.633,3.633,3.63,3.627,3.625,3.625,3.617,3.623,3.625,3.629,3.63,3.633,3.637,3.637,3.637,3.633,3.63,3.63,3.63,3.629,3.629,3.633,3.635,3.635,3.629,3.625,3.62,3.623,3.629,3.627,3.617,3.61,3.62,3.643,3.682,3.81,4.11,4.78,5.38,5.72,5.87,5.953,6.023,6.06,6.09,6.145,6.18,6.18,6.188,6.207,6.22,6.234,6.254,6.273,6.28,6.277,6.285,6.29,6.27,6.242,6.242,6.242,6.22,6.195,6.184,6.168,6.16,6.152,6.14,6.105,6.094,6.09,6.09,6.086,6.074,6.05,6.05,6.047,6.027,6.023,6.023,6.02,6.01,6.01,6.01,6.016,6.01,6.02,6.035,6.047,6.04,6.055,6.055,6.043,6.03,6.02,6.055,6.066,6.062,6.08,6.08,6.08,6.055,6.035,6.03,6.04,6.055,6.066,6.05,6.04,5.984,5.887,5.844,5.83,5.734,5.535,5.09,4.363,3.664,3.34,3.234,3.203,3.184,3.2,3.21,3.213,3.207,3.207,3.213,3.217,3.213,3.21,3.21,3.215,3.223,3.225,3.22,3.203,3.195,3.197,3.195,3.184,3.174,3.176,3.176,3.166,3.152,3.133,3.115,3.104,3.098,3.096,3.08,3.064,3.047,3.031,3.014,2.992,2.977,2.967,2.955,2.941,2.926,2.91,2.895,2.879,2.867,2.854,2.836,2.82,2.814,2.803,2.791,2.768,2.746,2.734,2.715,2.69,2.67,2.654,2.643,2.65,2.654,2.66,2.654,2.648,2.652,2.654,2.643,2.63,2.621,2.611,2.602,2.605,2.605,2.604,2.602,2.574,2.582
1.126,1.11,1.081,1.0625,1.042,1.024,1.014,1.012,1.013,1.017,1.019,1.018,1.018,1.019,1.019,1.022,1.025,1.027,1.029,1.03,1.033,1.035,1.035,1.035,1.036,1.038,1.039,1.042,1.044,1.044,1.046,1.048,1.052,1.055,1.057,1.059,1.059,1.062,1.063,1.064,1.065,1.069,1.073,1.076,1.077,1.079,1.081,1.083,1.084,1.084,1.087,1.09,1.094,1.097,1.099,1.101,1.103,1.105,1.109,1.111,1.113,1.117,1.12,1.123,1.125,1.124,1.125,1.127,1.129,1.132,1.132,1.135,1.139,1.141,1.143,1.144,1.1455,1.147,1.15,1.152,1.154,1.157,1.158,1.16,1.165,1.168,1.171,1.174,1.176,1.179,1.18,1.183,1.185,1.188,1.19,1.193,1.196,1.201,1.204,1.206,1.211,1.215,1.223,1.228,1.2295,1.232,1.238,1.245,1.249,1.253,1.258,1.261,1.269,1.268,1.273,1.283,1.292,1.29,1.286,1.311,1.375,1.456,1.724,2.287,2.951,3.47,3.666,3.732,3.777,3.799,3.818,3.824,3.83,3.822,3.818,3.814,3.803,3.797,3.787,3.78,3.775,3.775,3.78,3.78,3.78,3.781,3.785,3.787,3.785,3.791,3.793,3.785,3.785,3.78,3.768,3.75,3.73,3.71,3.684,3.662,3.648,3.637,3.639,3.64,3.635,3.63,3.625,3.621,3.617,3.611,3.602,3.596,3.592,3.592,3.588,3.586,3.578,3.578,3.584,3.582,3.574,3.566,3.564,3.574,3.584,3.605,3.613,3.621,3.633,3.645,3.65,3.658,3.66,3.674,3.684,3.69,3.69,3.69,3.69,3.697,3.705,3.709,3.72,3.734,3.738,3.754,3.758,3.76,3.762,3.766,3.775,3.783,3.793,3.793,3.8,3.809,3.81,3.81,3.807,3.805,3.793,3.783,3.768,3.746,3.719,3.686,3.658,3.643,3.627,3.617,3.611,3.61,3.604,3.602,3.621,3.629,3.64,3.646,3.654,3.662,3.67,3.68,3.686,3.688,3.69,3.697,3.7,3.703,3.709,3.71,3.71,3.705,3.703,3.703,3.703,3.703,3.705,3.71,3.713,3.713,3.715,3.715,3.71,3.707,3.703,3.7,3.693,3.684,3.68,3.676,3.67,3.666,3.66,3.656,3.648,3.646,3.643,3.637,3.635,3.637,3.637,3.639,3.63,3.633,3.633,3.63,3.627,3.621,3.621,3.621,3.621,3.621,3.617,3.617,3.617,3.617,3.617,3.613,3.62,3.62,3.625,3.625,3.625,3.625,3.621,3.625,3.62,3.62,3.62,3.625,3.629,3.63,3.633,3.635,3.64,3.637,3.635,3.629,3.635,3.637,3.637,3.637,3.635,3.643,3.643,3.635,3.63,3.629,3.633,3.639,3.633,3.627,3.62,3.625,3.646,3.682,3.8,4.055,4.71,5.336,5.703,5.855,5.94,6.0,6.023,6.055,6.105,6.137,6.125,6.14,6.156,6.17,6.195,6.223,6.242,6.246,6.246,6.258,6.254,6.227,6.22,6.22,6.207,6.18,6.176,6.168,6.15,6.137,6.117,6.105,6.1,6.1,6.105,6.1,6.094,6.086,6.08,6.082,6.08,6.055,6.055,6.055,6.055,6.047,6.04,6.043,6.047,6.04,6.047,6.06,6.06,6.06,6.074,6.066,6.055,6.05,6.04,6.06,6.08,6.06,6.074,6.07,6.066,6.043,6.023,6.02,6.023,6.043,6.055,6.05,6.05,5.99,5.9,5.86,5.85,5.78,5.582,5.15,4.418,3.682,3.346,3.232,3.2,3.184,3.195,3.207,3.205,3.201,3.201,3.213,3.215,3.215,3.209,3.209,3.21,3.217,3.223,3.219,3.203,3.195,3.2,3.197,3.184,3.176,3.176,3.178,3.166,3.152,3.137,3.117,3.104,3.102,3.1,3.084,3.066,3.049,3.035,3.018,2.996,2.982,2.969,2.957,2.945,2.93,2.912,2.895,2.883,2.87,2.855,2.836,2.82,2.812,2.805,2.791,2.768,2.746,2.734,2.715,2.691,2.67,2.652,2.646,2.652,2.658,2.658,2.652,2.648,2.648,2.65,2.643,2.629,2.623,2.611,2.598,2.604,2.605,2.604,2.602,2.574,2.584
1.128,1.112,1.082,1.063,1.043,1.025,1.016,1.014,1.016,1.019,1.019,1.02,1.0205,1.0205,1.021,1.024,1.027,1.03,1.031,1.034,1.035,1.037,1.037,1.037,1.038,1.04,1.042,1.044,1.046,1.048,1.049,1.051,1.053,1.057,1.059,1.06,1.062,1.063,1.065,1.066,1.068,1.071,1.075,1.078,1.079,1.081,1.082,1.085,1.086,1.086,1.087,1.091,1.095,1.097,1.1,1.102,1.1045,1.106,1.109,1.113,1.115,1.117,1.122,1.125,1.125,1.125,1.126,1.128,1.131,1.132,1.135,1.136,1.139,1.142,1.144,1.145,1.146,1.148,1.15,1.153,1.155,1.157,1.16,1.161,1.165,1.169,1.171,1.174,1.176,1.179,1.181,1.183,1.185,1.188,1.191,1.194,1.197,1.201,1.205,1.206,1.21,1.218,1.223,1.2295,1.23,1.233,1.239,1.246,1.25,1.253,1.259,1.264,1.269,1.268,1.275,1.283,1.292,1.29,1.284,1.307,1.363,1.438,1.667,2.146,2.82,3.398,3.625,3.729,3.77,3.791,3.805,3.816,3.82,3.814,3.805,3.797,3.795,3.787,3.78,3.77,3.764,3.768,3.771,3.775,3.775,3.775,3.777,3.78,3.78,3.787,3.787,3.785,3.78,3.77,3.764,3.752,3.729,3.71,3.684,3.664,3.65,3.643,3.637,3.637,3.63,3.629,3.629,3.625,3.625,3.621,3.613,3.607,3.6,3.596,3.596,3.596,3.586,3.582,3.59,3.588,3.574,3.57,3.57,3.58,3.592,3.607,3.623,3.627,3.64,3.654,3.656,3.662,3.662,3.674,3.684,3.688,3.69,3.69,3.69,3.697,3.7,3.707,3.72,3.734,3.738,3.754,3.762,3.766,3.766,3.768,3.775,3.783,3.793,3.799,3.8,3.812,3.816,3.818,3.814,3.805,3.793,3.781,3.768,3.744,3.72,3.688,3.666,3.648,3.63,3.621,3.62,3.62,3.615,3.617,3.623,3.635,3.646,3.65,3.652,3.662,3.674,3.678,3.682,3.684,3.688,3.693,3.705,3.709,3.71,3.71,3.71,3.71,3.705,3.703,3.703,3.7,3.703,3.703,3.707,3.707,3.71,3.71,3.71,3.707,3.703,3.701,3.695,3.691,3.688,3.684,3.676,3.67,3.666,3.656,3.648,3.646,3.643,3.637,3.637,3.637,3.637,3.637,3.635,3.63,3.63,3.627,3.621,3.62,3.613,3.611,3.611,3.611,3.611,3.611,3.611,3.611,3.611,3.61,3.611,3.617,3.62,3.625,3.625,3.625,3.625,3.625,3.625,3.62,3.623,3.625,3.63,3.63,3.635,3.645,3.645,3.64,3.64,3.637,3.64,3.64,3.637,3.643,3.645,3.65,3.646,3.645,3.639,3.637,3.637,3.648,3.645,3.635,3.625,3.63,3.65,3.682,3.795,4.01,4.66,5.293,5.688,5.86,5.938,5.99,6.016,6.04,6.082,6.11,6.1,6.105,6.12,6.133,6.15,6.176,6.2,6.21,6.21,6.203,6.2,6.188,6.188,6.188,6.16,6.15,6.145,6.133,6.11,6.09,6.082,6.086,6.086,6.09,6.094,6.094,6.09,6.09,6.082,6.082,6.08,6.062,6.06,6.06,6.06,6.047,6.043,6.055,6.06,6.055,6.06,6.08,6.074,6.07,6.08,6.08,6.062,6.055,6.043,6.055,6.074,6.05,6.06,6.06,6.055,6.023,6.008,6.004,6.01,6.027,6.04,6.05,6.04,5.984,5.9,5.867,5.86,5.816,5.61,5.19,4.47,3.69,3.342,3.236,3.195,3.178,3.188,3.201,3.197,3.193,3.195,3.205,3.21,3.205,3.203,3.203,3.205,3.215,3.215,3.213,3.2,3.193,3.195,3.193,3.184,3.172,3.176,3.174,3.166,3.152,3.133,3.115,3.104,3.102,3.096,3.082,3.066,3.049,3.035,3.018,2.996,2.982,2.969,2.957,2.947,2.93,2.912,2.896,2.883,2.87,2.855,2.836,2.822,2.814,2.805,2.791,2.768,2.746,2.736,2.715,2.691,2.67,2.654,2.65,2.654,2.662,2.666,2.658,2.65,2.65,2.652,2.646,2.637,2.629,2.617,2.602,2.607,2.607,2.607,2.604,2.576,2.584
1.13,1.112,1.083,1.064,1.044,1.025,1.016,1.014,1.016,1.0205,1.0205,1.0205,1.0205,1.021,1.021,1.026,1.03,1.031,1.033,1.035,1.037,1.039,1.039,1.038,1.04,1.041,1.044,1.046,1.048,1.049,1.051,1.053,1.056,1.059,1.061,1.062,1.0625,1.065,1.066,1.067,1.07,1.072,1.076,1.08,1.081,1.082,1.084,1.087,1.087,1.087,1.089,1.093,1.097,1.1,1.102,1.103,1.105,1.108,1.111,1.115,1.116,1.119,1.123,1.126,1.127,1.127,1.128,1.129,1.132,1.135,1.136,1.139,1.141,1.143,1.1455,1.1455,1.148,1.15,1.152,1.154,1.157,1.159,1.16,1.164,1.167,1.169,1.173,1.176,1.178,1.18,1.182,1.184,1.186,1.188,1.191,1.195,1.198,1.202,1.205,1.208,1.211,1.219,1.224,1.229,1.23,1.233,1.239,1.246,1.249,1.251,1.26,1.263,1.268,1.268,1.274,1.282,1.291,1.289,1.282,1.302,1.3545,1.421,1.617,2.04,2.713,3.32,3.588,3.693,3.748,3.773,3.791,3.803,3.812,3.805,3.797,3.79,3.787,3.78,3.77,3.764,3.764,3.766,3.771,3.777,3.775,3.78,3.78,3.78,3.783,3.785,3.785,3.783,3.777,3.773,3.762,3.75,3.73,3.713,3.693,3.674,3.662,3.654,3.654,3.652,3.643,3.639,3.64,3.639,3.633,3.633,3.623,3.617,3.605,3.607,3.607,3.6,3.594,3.588,3.594,3.588,3.578,3.572,3.57,3.582,3.598,3.613,3.625,3.629,3.643,3.656,3.656,3.656,3.66,3.67,3.68,3.682,3.684,3.688,3.688,3.693,3.701,3.707,3.72,3.736,3.744,3.756,3.766,3.766,3.764,3.768,3.775,3.783,3.79,3.799,3.805,3.816,3.824,3.824,3.818,3.81,3.797,3.787,3.77,3.752,3.725,3.691,3.67,3.65,3.629,3.62,3.617,3.617,3.62,3.625,3.63,3.635,3.643,3.646,3.656,3.668,3.678,3.682,3.68,3.682,3.69,3.695,3.703,3.707,3.71,3.71,3.709,3.709,3.707,3.703,3.701,3.701,3.701,3.703,3.707,3.707,3.703,3.707,3.703,3.701,3.701,3.701,3.697,3.695,3.69,3.684,3.68,3.672,3.664,3.654,3.648,3.646,3.643,3.639,3.635,3.635,3.639,3.64,3.635,3.635,3.629,3.629,3.625,3.62,3.617,3.615,3.615,3.615,3.611,3.611,3.611,3.611,3.613,3.613,3.617,3.62,3.625,3.625,3.627,3.629,3.629,3.629,3.629,3.625,3.63,3.63,3.639,3.639,3.643,3.65,3.65,3.648,3.648,3.645,3.646,3.646,3.645,3.645,3.65,3.654,3.65,3.65,3.646,3.646,3.645,3.652,3.65,3.64,3.627,3.63,3.65,3.682,3.787,4.01,4.62,5.27,5.676,5.867,5.945,6.0,6.03,6.05,6.094,6.117,6.11,6.113,6.12,6.133,6.145,6.168,6.188,6.203,6.184,6.176,6.188,6.18,6.18,6.156,6.145,6.145,6.137,6.125,6.098,6.082,6.09,6.086,6.09,6.094,6.098,6.098,6.098,6.094,6.086,6.086,6.074,6.06,6.06,6.06,6.06,6.04,6.047,6.055,6.062,6.06,6.062,6.08,6.08,6.066,6.066,6.062,6.06,6.047,6.035,6.043,6.055,6.043,6.043,6.04,6.027,6.008,5.992,5.992,5.996,6.01,6.03,6.043,6.023,5.97,5.89,5.86,5.848,5.816,5.625,5.203,4.492,3.693,3.334,3.23,3.19,3.176,3.186,3.197,3.197,3.195,3.195,3.203,3.203,3.203,3.201,3.201,3.203,3.207,3.21,3.209,3.193,3.186,3.191,3.188,3.176,3.168,3.168,3.17,3.162,3.146,3.129,3.111,3.1,3.096,3.094,3.078,3.062,3.045,3.031,3.016,2.994,2.979,2.967,2.957,2.945,2.928,2.908,2.895,2.88,2.87,2.854,2.838,2.82,2.814,2.8,2.791,2.766,2.746,2.734,2.715,2.691,2.67,2.654,2.654,2.658,2.664,2.666,2.66,2.652,2.652,2.652,2.648,2.639,2.629,2.621,2.605,2.607,2.605,2.602,2.604,2.578,2.584
1.131,1.113,1.084,1.064,1.044,1.025,1.016,1.013,1.016,1.0205,1.019,1.02,1.02,1.0205,1.021,1.026,1.029,1.031,1.033,1.034,1.037,1.039,1.039,1.039,1.04,1.042,1.044,1.047,1.048,1.049,1.051,1.053,1.056,1.059,1.062,1.0625,1.063,1.065,1.066,1.068,1.07,1.073,1.078,1.081,1.082,1.084,1.085,1.087,1.087,1.089,1.09,1.092,1.098,1.101,1.103,1.1045,1.106,1.108,1.112,1.115,1.116,1.12,1.124,1.127,1.128,1.128,1.128,1.13,1.133,1.136,1.136,1.139,1.142,1.145,1.146,1.146,1.149,1.15,1.153,1.156,1.158,1.16,1.161,1.164,1.167,1.171,1.173,1.177,1.178,1.181,1.183,1.185,1.187,1.189,1.191,1.195,1.197,1.202,1.205,1.207,1.211,1.218,1.223,1.228,1.2295,1.232,1.238,1.243,1.247,1.249,1.257,1.261,1.265,1.265,1.278,1.281,1.29,1.288,1.28,1.296,1.342,1.402,1.568,1.959,2.6,3.215,3.537,3.654,3.709,3.742,3.77,3.79,3.799,3.797,3.79,3.783,3.78,3.77,3.762,3.752,3.752,3.756,3.766,3.768,3.766,3.77,3.773,3.77,3.768,3.768,3.771,3.77,3.766,3.762,3.75,3.742,3.727,3.71,3.697,3.682,3.672,3.666,3.666,3.658,3.65,3.646,3.645,3.64,3.637,3.635,3.627,3.62,3.605,3.604,3.602,3.592,3.584,3.582,3.582,3.582,3.572,3.564,3.566,3.578,3.592,3.61,3.621,3.629,3.64,3.652,3.652,3.652,3.654,3.664,3.674,3.674,3.674,3.678,3.682,3.69,3.7,3.705,3.717,3.732,3.742,3.756,3.762,3.762,3.762,3.766,3.775,3.78,3.783,3.791,3.799,3.81,3.816,3.82,3.814,3.81,3.799,3.787,3.773,3.754,3.729,3.695,3.666,3.643,3.621,3.611,3.605,3.605,3.607,3.613,3.621,3.627,3.633,3.637,3.646,3.656,3.662,3.668,3.672,3.674,3.678,3.684,3.691,3.691,3.7,3.701,3.695,3.695,3.691,3.691,3.69,3.688,3.691,3.69,3.695,3.697,3.697,3.697,3.697,3.695,3.691,3.69,3.686,3.684,3.678,3.67,3.664,3.66,3.652,3.643,3.637,3.63,3.63,3.625,3.625,3.625,3.627,3.63,3.625,3.625,3.623,3.623,3.615,3.615,3.611,3.61,3.61,3.611,3.611,3.611,3.611,3.611,3.613,3.613,3.617,3.62,3.625,3.625,3.627,3.627,3.627,3.627,3.627,3.625,3.629,3.63,3.637,3.639,3.64,3.648,3.648,3.648,3.646,3.64,3.643,3.643,3.64,3.645,3.646,3.652,3.648,3.646,3.643,3.643,3.643,3.65,3.652,3.64,3.629,3.63,3.646,3.678,3.77,3.994,4.58,5.246,5.668,5.867,5.953,6.016,6.047,6.074,6.12,6.137,6.133,6.14,6.15,6.152,6.164,6.184,6.2,6.21,6.195,6.19,6.2,6.19,6.188,6.168,6.176,6.168,6.164,6.156,6.133,6.13,6.133,6.13,6.133,6.137,6.15,6.152,6.152,6.14,6.13,6.125,6.113,6.098,6.09,6.086,6.082,6.062,6.062,6.074,6.082,6.082,6.08,6.094,6.098,6.094,6.094,6.08,6.066,6.06,6.047,6.05,6.055,6.043,6.047,6.047,6.03,6.004,5.99,5.99,5.992,6.0,6.01,6.01,5.996,5.945,5.867,5.836,5.83,5.79,5.617,5.184,4.484,3.69,3.324,3.225,3.193,3.182,3.193,3.207,3.209,3.209,3.21,3.217,3.219,3.217,3.219,3.219,3.219,3.22,3.225,3.223,3.205,3.195,3.201,3.197,3.186,3.176,3.176,3.182,3.168,3.154,3.137,3.12,3.105,3.1,3.1,3.084,3.064,3.049,3.035,3.018,3.002,2.984,2.97,2.96,2.951,2.934,2.914,2.898,2.885,2.873,2.857,2.836,2.82,2.812,2.8,2.787,2.766,2.746,2.732,2.715,2.691,2.67,2.654,2.656,2.66,2.664,2.666,2.664,2.656,2.656,2.656,2.652,2.643,2.635,2.63,2.62,2.617,2.61,2.604,2.602,2.582,2.582
1.13,1.113,1.084,1.063,1.043,1.025,1.015,1.013,1.016,1.019,1.019,1.019,1.02,1.0205,1.021,1.026,1.029,1.031,1.034,1.035,1.037,1.039,1.039,1.039,1.04,1.042,1.045,1.047,1.048,1.049,1.051,1.053,1.056,1.059,1.062,1.0625,1.063,1.066,1.066,1.068,1.07,1.073,1.078,1.081,1.082,1.084,1.085,1.087,1.088,1.089,1.09,1.093,1.098,1.101,1.103,1.1045,1.105,1.108,1.112,1.115,1.116,1.12,1.124,1.127,1.128,1.128,1.128,1.13,1.133,1.136,1.137,1.139,1.143,1.145,1.146,1.146,1.149,1.151,1.153,1.155,1.158,1.16,1.162,1.164,1.168,1.171,1.173,1.177,1.178,1.181,1.184,1.185,1.187,1.1875,1.191,1.195,1.198,1.202,1.204,1.206,1.211,1.216,1.223,1.226,1.229,1.232,1.236,1.243,1.245,1.248,1.256,1.26,1.264,1.264,1.279,1.279,1.288,1.286,1.278,1.29,1.331,1.387,1.526,1.888,2.475,3.111,3.48,3.625,3.688,3.719,3.754,3.783,3.799,3.795,3.785,3.783,3.773,3.768,3.758,3.75,3.75,3.75,3.756,3.766,3.76,3.76,3.76,3.752,3.746,3.746,3.75,3.752,3.75,3.744,3.744,3.74,3.727,3.71,3.7,3.686,3.68,3.678,3.67,3.664,3.656,3.648,3.645,3.64,3.637,3.635,3.625,3.617,3.604,3.6,3.596,3.588,3.58,3.574,3.578,3.578,3.566,3.562,3.564,3.574,3.592,3.607,3.621,3.629,3.643,3.648,3.65,3.65,3.65,3.658,3.666,3.67,3.672,3.676,3.682,3.69,3.695,3.7,3.713,3.73,3.738,3.754,3.764,3.764,3.764,3.771,3.78,3.783,3.787,3.791,3.799,3.812,3.82,3.822,3.818,3.816,3.805,3.793,3.777,3.76,3.734,3.697,3.67,3.643,3.62,3.607,3.6,3.6,3.6,3.605,3.613,3.621,3.623,3.629,3.635,3.645,3.65,3.658,3.658,3.664,3.67,3.672,3.68,3.684,3.686,3.686,3.686,3.682,3.68,3.68,3.676,3.676,3.68,3.68,3.682,3.686,3.686,3.686,3.686,3.686,3.682,3.678,3.674,3.668,3.666,3.66,3.654,3.648,3.639,3.635,3.627,3.625,3.621,3.62,3.617,3.617,3.62,3.621,3.62,3.62,3.615,3.615,3.611,3.611,3.61,3.61,3.61,3.611,3.61,3.611,3.611,3.611,3.611,3.611,3.617,3.62,3.625,3.625,3.625,3.625,3.625,3.625,3.625,3.625,3.627,3.63,3.633,3.637,3.639,3.645,3.645,3.645,3.645,3.637,3.639,3.64,3.637,3.643,3.645,3.65,3.645,3.645,3.64,3.639,3.643,3.646,3.648,3.64,3.627,3.625,3.64,3.668,3.756,3.977,4.543,5.23,5.664,5.875,5.96,6.027,6.062,6.09,6.137,6.164,6.16,6.16,6.17,6.176,6.188,6.203,6.22,6.23,6.215,6.21,6.215,6.207,6.2,6.188,6.2,6.195,6.188,6.18,6.164,6.16,6.16,6.156,6.15,6.156,6.164,6.168,6.168,6.16,6.145,6.14,6.133,6.113,6.1,6.094,6.086,6.074,6.074,6.082,6.086,6.082,6.082,6.098,6.11,6.105,6.105,6.086,6.074,6.062,6.05,6.05,6.04,6.03,6.043,6.047,6.035,6.004,5.992,5.99,5.984,5.99,5.992,5.977,5.965,5.914,5.848,5.812,5.81,5.777,5.59,5.145,4.46,3.686,3.322,3.22,3.191,3.18,3.191,3.21,3.21,3.213,3.215,3.219,3.219,3.219,3.215,3.217,3.22,3.225,3.229,3.225,3.205,3.2,3.201,3.2,3.188,3.178,3.18,3.182,3.17,3.154,3.135,3.12,3.105,3.104,3.1,3.086,3.068,3.05,3.037,3.02,3.0,2.986,2.973,2.963,2.951,2.934,2.916,2.898,2.885,2.871,2.854,2.836,2.818,2.809,2.797,2.781,2.76,2.74,2.729,2.71,2.688,2.668,2.654,2.656,2.652,2.662,2.668,2.664,2.658,2.656,2.66,2.654,2.648,2.639,2.635,2.627,2.625,2.62,2.607,2.6,2.58,2.58
1.131,1.114,1.082,1.063,1.043,1.024,1.015,1.012,1.016,1.02,1.02,1.019,1.02,1.0205,1.021,1.026,1.03,1.032,1.034,1.034,1.037,1.039,1.039,1.039,1.04,1.043,1.045,1.047,1.048,1.049,1.051,1.052,1.056,1.06,1.061,1.0625,1.063,1.066,1.067,1.068,1.07,1.073,1.078,1.08,1.082,1.084,1.085,1.087,1.088,1.089,1.09,1.094,1.098,1.101,1.103,1.1045,1.105,1.108,1.112,1.115,1.116,1.12,1.124,1.127,1.128,1.128,1.128,1.131,1.133,1.136,1.137,1.14,1.143,1.145,1.146,1.146,1.149,1.151,1.153,1.155,1.158,1.159,1.161,1.164,1.168,1.17,1.173,1.177,1.178,1.181,1.184,1.185,1.187,1.1875,1.191,1.195,1.198,1.201,1.204,1.206,1.211,1.216,1.221,1.227,1.228,1.231,1.236,1.241,1.244,1.246,1.255,1.26,1.264,1.263,1.274,1.276,1.286,1.286,1.279,1.288,1.324,1.372,1.49,1.807,2.35,3.023,3.428,3.605,3.68,3.71,3.744,3.777,3.797,3.795,3.785,3.78,3.771,3.766,3.758,3.748,3.75,3.754,3.764,3.766,3.764,3.76,3.76,3.754,3.748,3.74,3.74,3.754,3.756,3.752,3.748,3.74,3.729,3.71,3.7,3.69,3.682,3.674,3.67,3.662,3.654,3.646,3.64,3.637,3.635,3.627,3.621,3.611,3.6,3.596,3.59,3.58,3.572,3.568,3.572,3.572,3.562,3.555,3.557,3.572,3.592,3.607,3.621,3.63,3.646,3.656,3.65,3.648,3.648,3.658,3.664,3.672,3.67,3.674,3.684,3.69,3.695,3.7,3.713,3.73,3.738,3.76,3.77,3.77,3.775,3.78,3.79,3.791,3.795,3.799,3.809,3.824,3.828,3.828,3.826,3.822,3.805,3.795,3.781,3.766,3.738,3.705,3.676,3.643,3.623,3.61,3.602,3.596,3.596,3.604,3.61,3.615,3.62,3.623,3.63,3.639,3.65,3.654,3.656,3.658,3.664,3.666,3.672,3.678,3.68,3.68,3.678,3.678,3.674,3.672,3.67,3.67,3.672,3.674,3.678,3.678,3.68,3.68,3.68,3.678,3.678,3.672,3.67,3.666,3.66,3.654,3.648,3.646,3.639,3.63,3.627,3.623,3.62,3.62,3.62,3.615,3.62,3.62,3.62,3.615,3.613,3.611,3.611,3.611,3.611,3.61,3.611,3.611,3.611,3.61,3.61,3.611,3.611,3.611,3.613,3.62,3.62,3.625,3.625,3.625,3.625,3.625,3.625,3.625,3.625,3.63,3.63,3.637,3.637,3.643,3.645,3.645,3.639,3.637,3.64,3.64,3.64,3.643,3.645,3.65,3.65,3.645,3.645,3.645,3.645,3.646,3.646,3.64,3.627,3.629,3.639,3.668,3.738,3.963,4.516,5.223,5.676,5.887,5.977,6.043,6.082,6.105,6.156,6.184,6.176,6.18,6.184,6.188,6.19,6.21,6.223,6.23,6.227,6.22,6.223,6.21,6.21,6.203,6.215,6.207,6.203,6.195,6.18,6.176,6.168,6.16,6.156,6.156,6.16,6.16,6.156,6.145,6.137,6.133,6.125,6.105,6.094,6.09,6.08,6.074,6.074,6.082,6.086,6.08,6.074,6.086,6.094,6.086,6.09,6.082,6.062,6.06,6.047,6.05,6.027,6.016,6.03,6.035,6.023,6.004,5.996,5.992,5.984,5.98,5.98,5.95,5.938,5.883,5.824,5.79,5.78,5.746,5.55,5.098,4.414,3.674,3.324,3.213,3.184,3.178,3.19,3.205,3.205,3.205,3.209,3.21,3.213,3.2,3.197,3.203,3.205,3.213,3.213,3.213,3.2,3.19,3.197,3.195,3.182,3.172,3.17,3.176,3.162,3.146,3.129,3.115,3.102,3.098,3.096,3.082,3.064,3.047,3.031,3.016,2.998,2.982,2.969,2.959,2.95,2.93,2.912,2.895,2.88,2.87,2.852,2.832,2.814,2.803,2.793,2.775,2.754,2.738,2.725,2.707,2.684,2.664,2.652,2.652,2.652,2.668,2.668,2.664,2.66,2.658,2.658,2.652,2.643,2.637,2.63,2.623,2.625,2.615,2.605,2.598,2.58,2.574
1.131,1.114,1.083,1.063,1.042,1.024,1.015,1.012,1.016,1.02,1.02,1.019,1.02,1.0205,1.024,1.027,1.03,1.033,1.034,1.036,1.038,1.04,1.04,1.04,1.042,1.043,1.046,1.048,1.051,1.051,1.052,1.055,1.059,1.06,1.063,1.063,1.064,1.067,1.069,1.07,1.071,1.074,1.079,1.082,1.084,1.085,1.087,1.09,1.09,1.09,1.092,1.095,1.1,1.103,1.1045,1.105,1.108,1.111,1.113,1.116,1.119,1.122,1.126,1.129,1.129,1.129,1.131,1.132,1.135,1.137,1.138,1.141,1.144,1.146,1.147,1.148,1.15,1.151,1.153,1.157,1.159,1.161,1.163,1.164,1.168,1.171,1.173,1.177,1.178,1.181,1.184,1.185,1.187,1.19,1.191,1.195,1.198,1.201,1.205,1.206,1.211,1.216,1.221,1.225,1.229,1.231,1.236,1.241,1.244,1.246,1.256,1.262,1.264,1.264,1.27,1.275,1.286,1.286,1.281,1.288,1.318,1.357,1.463,1.745,2.248,2.947,3.375,3.588,3.674,3.705,3.738,3.78,3.799,3.795,3.79,3.783,3.78,3.775,3.77,3.768,3.768,3.766,3.771,3.777,3.771,3.771,3.768,3.764,3.76,3.756,3.762,3.766,3.768,3.758,3.754,3.748,3.734,3.717,3.709,3.693,3.686,3.68,3.67,3.662,3.654,3.646,3.645,3.64,3.637,3.635,3.627,3.62,3.61,3.605,3.598,3.588,3.588,3.582,3.584,3.584,3.57,3.562,3.56,3.574,3.592,3.607,3.621,3.63,3.646,3.656,3.648,3.643,3.646,3.654,3.664,3.664,3.666,3.676,3.684,3.69,3.691,3.7,3.707,3.725,3.74,3.76,3.77,3.78,3.78,3.79,3.8,3.8,3.803,3.809,3.824,3.838,3.838,3.836,3.83,3.822,3.809,3.795,3.777,3.766,3.74,3.707,3.68,3.646,3.623,3.61,3.602,3.594,3.594,3.596,3.602,3.61,3.615,3.621,3.627,3.635,3.643,3.65,3.648,3.652,3.654,3.66,3.664,3.666,3.672,3.674,3.668,3.67,3.67,3.664,3.664,3.664,3.668,3.67,3.67,3.67,3.674,3.678,3.678,3.674,3.668,3.67,3.666,3.664,3.66,3.654,3.648,3.646,3.639,3.63,3.627,3.625,3.621,3.62,3.62,3.62,3.621,3.621,3.62,3.62,3.615,3.617,3.613,3.611,3.611,3.611,3.611,3.611,3.611,3.611,3.611,3.611,3.611,3.611,3.611,3.617,3.62,3.621,3.623,3.625,3.625,3.625,3.625,3.623,3.625,3.63,3.633,3.639,3.637,3.64,3.64,3.64,3.64,3.637,3.637,3.64,3.64,3.643,3.645,3.65,3.65,3.65,3.646,3.645,3.646,3.648,3.652,3.646,3.63,3.629,3.635,3.664,3.719,3.94,4.484,5.207,5.67,5.9,5.996,6.055,6.094,6.12,6.168,6.19,6.188,6.184,6.188,6.188,6.19,6.21,6.227,6.234,6.234,6.234,6.234,6.23,6.23,6.22,6.24,6.24,6.24,6.23,6.22,6.215,6.223,6.215,6.21,6.21,6.21,6.203,6.2,6.188,6.168,6.168,6.16,6.14,6.12,6.117,6.113,6.1,6.098,6.11,6.11,6.1,6.09,6.11,6.113,6.105,6.105,6.098,6.082,6.074,6.06,6.06,6.03,6.027,6.035,6.035,6.02,6.01,6.008,6.01,5.996,5.98,5.97,5.934,5.91,5.86,5.797,5.766,5.766,5.727,5.543,5.062,4.37,3.662,3.328,3.22,3.188,3.18,3.191,3.207,3.205,3.205,3.205,3.205,3.2,3.188,3.186,3.191,3.195,3.2,3.207,3.203,3.191,3.186,3.19,3.19,3.178,3.168,3.168,3.168,3.156,3.145,3.129,3.111,3.1,3.096,3.096,3.08,3.062,3.045,3.03,3.016,2.996,2.982,2.967,2.957,2.945,2.928,2.908,2.89,2.879,2.865,2.848,2.828,2.812,2.803,2.79,2.775,2.754,2.738,2.729,2.707,2.684,2.664,2.652,2.652,2.654,2.666,2.668,2.666,2.66,2.658,2.66,2.654,2.643,2.635,2.625,2.617,2.615,2.607,2.598,2.592,2.574,2.566
1.132,1.115,1.085,1.063,1.043,1.025,1.016,1.014,1.017,1.021,1.0205,1.0205,1.021,1.022,1.025,1.03,1.033,1.035,1.036,1.038,1.04,1.042,1.043,1.043,1.046,1.048,1.05,1.053,1.054,1.055,1.057,1.059,1.0625,1.065,1.067,1.068,1.07,1.073,1.074,1.075,1.076,1.079,1.084,1.087,1.089,1.09,1.091,1.094,1.095,1.095,1.096,1.1,1.104,1.106,1.108,1.109,1.112,1.115,1.118,1.121,1.122,1.127,1.131,1.133,1.135,1.133,1.135,1.137,1.14,1.142,1.143,1.146,1.148,1.15,1.151,1.152,1.154,1.155,1.158,1.16,1.163,1.165,1.166,1.168,1.172,1.174,1.177,1.179,1.182,1.184,1.186,1.187,1.19,1.191,1.194,1.197,1.2,1.204,1.207,1.209,1.212,1.218,1.223,1.226,1.229,1.231,1.237,1.242,1.245,1.247,1.256,1.265,1.265,1.264,1.269,1.273,1.282,1.283,1.278,1.284,1.311,1.345,1.4375,1.699,2.188,2.883,3.326,3.564,3.662,3.7,3.732,3.775,3.793,3.79,3.783,3.783,3.777,3.777,3.773,3.771,3.771,3.777,3.787,3.783,3.78,3.781,3.78,3.775,3.771,3.762,3.766,3.768,3.768,3.764,3.756,3.746,3.736,3.725,3.707,3.697,3.69,3.678,3.676,3.666,3.656,3.65,3.646,3.645,3.64,3.637,3.63,3.625,3.62,3.617,3.613,3.602,3.602,3.602,3.602,3.598,3.582,3.566,3.564,3.578,3.592,3.607,3.621,3.63,3.646,3.652,3.645,3.643,3.643,3.654,3.664,3.664,3.666,3.676,3.684,3.684,3.691,3.695,3.701,3.723,3.738,3.756,3.77,3.777,3.781,3.79,3.805,3.814,3.816,3.82,3.832,3.842,3.84,3.836,3.836,3.824,3.812,3.797,3.78,3.768,3.744,3.707,3.68,3.645,3.621,3.611,3.604,3.594,3.586,3.594,3.596,3.602,3.607,3.611,3.62,3.627,3.635,3.639,3.643,3.643,3.648,3.648,3.654,3.658,3.662,3.66,3.662,3.662,3.662,3.662,3.662,3.662,3.662,3.662,3.662,3.662,3.662,3.668,3.666,3.668,3.664,3.66,3.662,3.656,3.654,3.648,3.646,3.643,3.637,3.63,3.627,3.623,3.621,3.62,3.62,3.62,3.623,3.625,3.623,3.62,3.62,3.62,3.62,3.62,3.62,3.62,3.62,3.62,3.62,3.617,3.617,3.62,3.62,3.621,3.621,3.625,3.627,3.63,3.633,3.633,3.633,3.633,3.633,3.633,3.635,3.639,3.643,3.646,3.646,3.65,3.654,3.652,3.65,3.646,3.652,3.652,3.652,3.652,3.658,3.662,3.662,3.658,3.66,3.66,3.66,3.658,3.658,3.652,3.635,3.63,3.637,3.66,3.701,3.916,4.438,5.176,5.656,5.91,6.01,6.06,6.098,6.117,6.176,6.2,6.188,6.188,6.184,6.18,6.184,6.2,6.215,6.22,6.234,6.234,6.24,6.24,6.23,6.23,6.24,6.242,6.25,6.246,6.242,6.24,6.246,6.25,6.25,6.258,6.26,6.258,6.254,6.24,6.227,6.223,6.22,6.195,6.18,6.176,6.168,6.152,6.152,6.156,6.156,6.145,6.133,6.16,6.16,6.145,6.14,6.13,6.117,6.1,6.086,6.074,6.05,6.043,6.055,6.05,6.03,6.027,6.023,6.03,6.02,5.992,5.977,5.94,5.91,5.855,5.81,5.773,5.773,5.74,5.562,5.05,4.336,3.658,3.346,3.236,3.201,3.19,3.203,3.217,3.213,3.213,3.21,3.209,3.197,3.186,3.19,3.195,3.197,3.2,3.207,3.201,3.188,3.186,3.19,3.188,3.174,3.166,3.166,3.164,3.156,3.145,3.127,3.111,3.098,3.094,3.092,3.078,3.06,3.04,3.027,3.014,2.994,2.979,2.965,2.955,2.943,2.926,2.908,2.889,2.875,2.863,2.848,2.828,2.809,2.799,2.79,2.773,2.756,2.738,2.727,2.709,2.684,2.664,2.65,2.652,2.65,2.662,2.666,2.664,2.66,2.658,2.656,2.65,2.639,2.625,2.615,2.604,2.602,2.596,2.588,2.59,2.57,2.562
1.131,1.115,1.085,1.063,1.043,1.025,1.016,1.014,1.018,1.021,1.021,1.021,1.022,1.023,1.024,1.03,1.034,1.036,1.037,1.039,1.041,1.044,1.044,1.044,1.046,1.049,1.052,1.055,1.056,1.057,1.059,1.061,1.063,1.066,1.069,1.07,1.071,1.075,1.075,1.076,1.078,1.081,1.085,1.089,1.091,1.092,1.093,1.096,1.096,1.096,1.098,1.102,1.105,1.107,1.11,1.11,1.113,1.115,1.118,1.122,1.124,1.128,1.132,1.135,1.136,1.136,1.136,1.138,1.14,1.144,1.145,1.147,1.149,1.152,1.153,1.153,1.155,1.157,1.16,1.161,1.165,1.166,1.166,1.17,1.173,1.176,1.178,1.18,1.182,1.185,1.187,1.188,1.19,1.192,1.195,1.199,1.202,1.204,1.207,1.209,1.213,1.217,1.223,1.226,1.228,1.231,1.236,1.241,1.244,1.246,1.255,1.265,1.265,1.264,1.267,1.271,1.278,1.281,1.278,1.282,1.304,1.333,1.416,1.657,2.12,2.805,3.246,3.512,3.639,3.682,3.72,3.764,3.783,3.783,3.78,3.78,3.773,3.768,3.764,3.762,3.764,3.77,3.78,3.781,3.777,3.775,3.773,3.764,3.754,3.736,3.734,3.734,3.736,3.734,3.729,3.72,3.717,3.707,3.697,3.686,3.676,3.664,3.66,3.654,3.646,3.643,3.635,3.635,3.633,3.629,3.623,3.615,3.61,3.607,3.602,3.598,3.59,3.594,3.598,3.592,3.578,3.566,3.562,3.574,3.59,3.604,3.615,3.629,3.643,3.65,3.643,3.635,3.639,3.652,3.662,3.664,3.666,3.676,3.684,3.688,3.69,3.693,3.7,3.717,3.738,3.754,3.77,3.773,3.783,3.791,3.803,3.81,3.814,3.822,3.832,3.846,3.844,3.84,3.836,3.83,3.818,3.8,3.781,3.768,3.744,3.707,3.68,3.639,3.613,3.604,3.598,3.59,3.58,3.586,3.592,3.598,3.604,3.607,3.611,3.62,3.627,3.633,3.633,3.637,3.64,3.645,3.648,3.652,3.656,3.656,3.656,3.656,3.656,3.656,3.656,3.656,3.656,3.656,3.654,3.652,3.656,3.658,3.658,3.658,3.658,3.654,3.652,3.65,3.648,3.645,3.64,3.637,3.63,3.627,3.623,3.62,3.62,3.62,3.62,3.62,3.62,3.62,3.62,3.62,3.62,3.62,3.62,3.62,3.62,3.62,3.62,3.62,3.62,3.62,3.62,3.62,3.62,3.621,3.625,3.627,3.63,3.63,3.633,3.633,3.637,3.639,3.637,3.635,3.637,3.643,3.645,3.648,3.652,3.652,3.654,3.656,3.652,3.65,3.654,3.658,3.658,3.658,3.662,3.666,3.666,3.666,3.666,3.664,3.664,3.658,3.656,3.654,3.637,3.63,3.633,3.652,3.695,3.893,4.4,5.15,5.645,5.926,6.03,6.08,6.11,6.133,6.184,6.207,6.203,6.2,6.19,6.184,6.184,6.203,6.215,6.215,6.23,6.246,6.25,6.242,6.234,6.234,6.23,6.24,6.254,6.26,6.258,6.25,6.25,6.242,6.24,6.246,6.25,6.246,6.246,6.234,6.227,6.23,6.227,6.21,6.195,6.2,6.195,6.184,6.176,6.176,6.17,6.156,6.156,6.184,6.184,6.156,6.15,6.137,6.133,6.117,6.098,6.082,6.055,6.055,6.055,6.047,6.035,6.03,6.035,6.05,6.03,6.004,5.973,5.938,5.902,5.844,5.793,5.76,5.758,5.72,5.523,4.984,4.234,3.633,3.354,3.246,3.209,3.195,3.207,3.217,3.213,3.21,3.213,3.21,3.193,3.188,3.193,3.2,3.2,3.2,3.203,3.203,3.188,3.182,3.188,3.186,3.174,3.164,3.164,3.166,3.154,3.14,3.121,3.11,3.094,3.092,3.088,3.072,3.057,3.04,3.023,3.01,2.992,2.977,2.963,2.953,2.94,2.922,2.904,2.887,2.875,2.857,2.842,2.822,2.805,2.795,2.781,2.766,2.75,2.732,2.723,2.703,2.682,2.658,2.645,2.645,2.645,2.656,2.66,2.662,2.656,2.656,2.65,2.643,2.635,2.617,2.607,2.592,2.592,2.586,2.582,2.586,2.572,2.562
1.13,1.114,1.083,1.063,1.042,1.025,1.015,1.013,1.017,1.021,1.0205,1.021,1.022,1.022,1.025,1.029,1.033,1.036,1.036,1.038,1.041,1.043,1.044,1.043,1.045,1.048,1.052,1.054,1.055,1.056,1.058,1.06,1.063,1.066,1.068,1.07,1.071,1.073,1.074,1.076,1.078,1.081,1.085,1.089,1.091,1.092,1.094,1.096,1.096,1.096,1.097,1.102,1.105,1.107,1.111,1.111,1.113,1.116,1.119,1.123,1.125,1.128,1.133,1.136,1.137,1.136,1.137,1.139,1.142,1.144,1.146,1.148,1.151,1.152,1.154,1.154,1.156,1.159,1.16,1.163,1.166,1.167,1.169,1.171,1.174,1.176,1.179,1.18,1.184,1.186,1.1875,1.189,1.191,1.194,1.196,1.199,1.203,1.204,1.208,1.211,1.214,1.219,1.223,1.227,1.2295,1.231,1.237,1.242,1.245,1.248,1.256,1.267,1.267,1.265,1.267,1.271,1.274,1.281,1.28,1.282,1.298,1.326,1.395,1.589,2.016,2.646,3.113,3.402,3.58,3.668,3.71,3.756,3.768,3.77,3.773,3.771,3.766,3.76,3.756,3.748,3.752,3.754,3.76,3.758,3.754,3.74,3.73,3.715,3.7,3.693,3.693,3.697,3.7,3.697,3.695,3.69,3.688,3.686,3.684,3.682,3.676,3.668,3.664,3.656,3.646,3.63,3.627,3.629,3.629,3.625,3.62,3.61,3.604,3.602,3.596,3.594,3.584,3.584,3.592,3.588,3.572,3.566,3.56,3.572,3.586,3.6,3.613,3.625,3.64,3.65,3.64,3.637,3.64,3.652,3.662,3.664,3.67,3.674,3.682,3.69,3.69,3.693,3.7,3.715,3.738,3.754,3.768,3.775,3.787,3.797,3.809,3.812,3.814,3.822,3.834,3.852,3.85,3.85,3.844,3.842,3.828,3.81,3.791,3.777,3.748,3.713,3.684,3.643,3.615,3.604,3.6,3.592,3.582,3.584,3.59,3.6,3.604,3.61,3.613,3.617,3.627,3.63,3.635,3.637,3.643,3.645,3.646,3.652,3.656,3.656,3.656,3.656,3.656,3.656,3.656,3.656,3.656,3.656,3.654,3.65,3.652,3.656,3.654,3.654,3.654,3.65,3.65,3.648,3.645,3.643,3.637,3.637,3.63,3.627,3.623,3.621,3.62,3.62,3.62,3.62,3.62,3.621,3.62,3.62,3.62,3.62,3.62,3.62,3.62,3.615,3.617,3.617,3.617,3.615,3.62,3.62,3.62,3.62,3.621,3.625,3.627,3.63,3.63,3.63,3.633,3.633,3.633,3.63,3.635,3.637,3.643,3.646,3.646,3.648,3.648,3.648,3.648,3.646,3.652,3.652,3.652,3.654,3.656,3.66,3.666,3.66,3.658,3.658,3.656,3.656,3.652,3.652,3.633,3.629,3.629,3.646,3.688,3.871,4.367,5.12,5.637,5.945,6.055,6.1,6.133,6.15,6.2,6.227,6.227,6.22,6.207,6.195,6.195,6.21,6.215,6.22,6.22,6.25,6.254,6.24,6.23,6.234,6.227,6.223,6.24,6.246,6.246,6.242,6.242,6.23,6.227,6.227,6.223,6.22,6.207,6.2,6.19,6.184,6.184,6.168,6.16,6.168,6.168,6.156,6.15,6.152,6.152,6.145,6.15,6.176,6.17,6.15,6.14,6.125,6.125,6.12,6.1,6.082,6.055,6.06,6.055,6.05,6.035,6.03,6.03,6.055,6.04,6.008,5.97,5.926,5.887,5.824,5.77,5.734,5.73,5.688,5.445,4.85,4.086,3.572,3.346,3.242,3.203,3.191,3.201,3.213,3.207,3.203,3.207,3.203,3.188,3.182,3.19,3.193,3.195,3.197,3.2,3.197,3.182,3.178,3.184,3.184,3.17,3.16,3.16,3.16,3.152,3.14,3.121,3.105,3.092,3.09,3.086,3.07,3.055,3.037,3.021,3.008,2.99,2.977,2.96,2.951,2.938,2.922,2.9,2.885,2.875,2.857,2.842,2.822,2.805,2.795,2.78,2.766,2.75,2.734,2.725,2.705,2.678,2.658,2.64,2.64,2.639,2.65,2.656,2.658,2.654,2.654,2.646,2.639,2.629,2.613,2.598,2.586,2.59,2.588,2.584,2.588,2.576,2.562
