0.784,0.7812,0.7803,0.7793,0.7764,0.7744,0.775,0.776,0.776,0.775,0.774,0.774,0.7744,0.776,0.776,0.777,0.779,0.78,0.7812,0.782,0.783,0.7847,0.785,0.7866,0.7886,0.79,0.792,0.793,0.795,0.797,0.799,0.8,0.801,0.8022,0.8047,0.8066,0.8086,0.81,0.8135,0.8154,0.817,0.8193,0.821,0.823,0.825,0.8276,0.83,0.8325,0.8345,0.837,0.839,0.843,0.8438,0.846,0.8486,0.8506,0.854,0.856,0.859,0.861,0.862,0.8643,0.866,0.869,0.871,0.873,0.8745,0.8765,0.8784,0.88,0.8804,0.8823,0.8853,0.888,0.8896,0.8906,0.892,0.8936,0.896,0.8984,0.9,0.902,0.905,0.9067,0.9077,0.9087,0.91,0.9116,0.914,0.915,0.917,0.9194,0.919,0.9204,0.9214,0.922,0.923,0.923,0.9233,0.9243,0.9243,0.925,0.926,0.9287,0.931,0.9336,0.9355,0.9375,0.94,0.942,0.944,0.945,0.9473,0.949,0.951,0.954,0.9565,0.9585,0.961,0.9634,0.9663,0.9688,0.97,0.973,0.9746,0.9756,0.977,0.981,0.9834,0.986,0.9907,0.994,0.998,1.004,1.008,1.01,1.011,1.018,1.031,1.036,1.04,1.05,1.058,1.059,1.062,1.059,1.059,1.058,1.074,1.13,1.218,1.374,1.671,2.047,2.424,2.752,3.02,3.188,3.29,3.346,3.354,3.371,3.373,3.373,3.393,3.445,3.531,3.596,3.64,3.682,3.717,3.729,3.715,3.68,3.648,3.63,3.604,3.547,3.455,3.324,3.215,3.143,3.102,3.092,3.102,3.107,3.107,3.094,3.062,3.01,2.95,2.879,2.805,2.764,2.725,2.69,2.662,2.648,2.643,2.643,2.643,2.64,2.654,2.646,2.627,2.592,2.54,2.502,2.479,2.467,2.459,2.455,2.459,2.469,2.475,2.494,2.568,2.695,2.818,2.89,2.918,2.926,2.914,2.885,2.84,2.787,2.693,2.592,2.506,2.45,2.432,2.43,2.43,2.432,2.44,2.443,2.443,2.445,2.459,2.48,2.51,2.518,2.523,2.527,2.527,2.523,2.52,2.52,2.523,2.53,2.527,2.523,2.527,2.537,2.549,2.572,2.604,2.646,2.713,2.787,2.885,2.95,3.012,3.05,3.082,3.11,3.121,3.13,3.133,3.135,3.135,3.129,3.111,3.092,3.072,3.057,3.043,3.033,3.025,3.014,2.994,2.98,2.967,2.955,2.945,2.943,2.94,2.928,2.908,2.895,2.871,2.855,2.844,2.836,2.836,2.838,2.842,2.842,2.848,2.848,2.844,2.832,2.818,2.809,2.807,2.8,2.795,2.79,2.79,2.79,2.793,2.787,2.791,2.795,2.8,2.805,2.81,2.814,2.814,2.816,2.816,2.814,2.814,2.814,2.812,2.81,2.81,2.814,2.814,2.814,2.82,2.816,2.812,2.807,2.807,2.809,2.81,2.814,2.83,2.838,2.832,2.826,2.816,2.797,2.773,2.738,2.682,2.627,2.594,2.586,2.582,2.578,2.574,2.58,2.582,2.582,2.582,2.582,2.584,2.588,2.586,2.586,2.59,2.598,2.61,2.611,2.61,2.602,2.598,2.592,2.586,2.582,2.58,2.58,2.584,2.582,2.582,2.576,2.568,2.562,2.562,2.566,2.564,2.564,2.568,2.574,2.578,2.58,2.584,2.592,2.596,2.6,2.6,2.6,2.6,2.598,2.596,2.594,2.59,2.586,2.58,2.58,2.58,2.578,2.572,2.572,2.57,2.566,2.566,2.564,2.564,2.564,2.568,2.568,2.57,2.57,2.57,2.566,2.564,2.568,2.572,2.578,2.58,2.584,2.584,2.586,2.59,2.59,2.592,2.596,2.604,2.607,2.607,2.605,2.604,2.604,2.604,2.604,2.6,2.596,2.592,2.592,2.592,2.592,2.592,2.596,2.602,2.604,2.6,2.598,2.6,2.605,2.613,2.617,2.62,2.62,2.621,2.623,2.62,2.623,2.621,2.627,2.635,2.637,2.639,2.639,2.639,2.637,2.633,2.627,2.613,2.594,2.572,2.557,2.54,2.53,2.523,2.518,2.527,2.545,2.562,2.602,2.62,2.615,2.605,2.605,2.621,2.621,2.61,2.604,2.592,2.584,2.584,2.582,2.576,2.572,2.559
0.784,0.7812,0.78,0.7793,0.777,0.7744,0.775,0.7764,0.776,0.7754,0.774,0.774,0.7744,0.7764,0.7764,0.777,0.779,0.78,0.7812,0.782,0.783,0.7847,0.7856,0.7876,0.7896,0.79,0.792,0.793,0.7944,0.797,0.7993,0.8003,0.801,0.8027,0.8047,0.807,0.8086,0.8105,0.8135,0.8154,0.818,0.82,0.8213,0.823,0.8257,0.8276,0.83,0.8325,0.836,0.8374,0.8394,0.843,0.8447,0.847,0.849,0.8516,0.854,0.856,0.859,0.861,0.8623,0.8643,0.867,0.869,0.8716,0.8735,0.875,0.877,0.8794,0.88,0.8813,0.8833,0.8853,0.8887,0.89,0.8916,0.8936,0.895,0.8965,0.8994,0.9004,0.903,0.905,0.9077,0.9087,0.9097,0.9106,0.9126,0.9155,0.917,0.9185,0.9194,0.921,0.922,0.9224,0.9233,0.924,0.9243,0.9243,0.9253,0.926,0.926,0.9272,0.9297,0.932,0.934,0.9365,0.938,0.9404,0.942,0.944,0.9453,0.9473,0.9497,0.9517,0.954,0.9565,0.9585,0.9614,0.9634,0.9663,0.9688,0.97,0.973,0.9746,0.9756,0.977,0.9795,0.9824,0.986,0.9897,0.994,0.9966,1.004,1.007,1.008,1.01,1.018,1.029,1.034,1.037,1.05,1.056,1.057,1.0625,1.06,1.059,1.054,1.07,1.12,1.201,1.34,1.614,1.978,2.357,2.701,2.963,3.104,3.2,3.236,3.219,3.219,3.229,3.215,3.223,3.234,3.281,3.309,3.312,3.32,3.332,3.344,3.336,3.318,3.3,3.287,3.268,3.232,3.176,3.139,3.092,3.05,3.027,3.025,3.027,3.033,3.027,3.004,2.969,2.922,2.861,2.797,2.775,2.748,2.717,2.686,2.666,2.652,2.64,2.637,2.633,2.648,2.648,2.63,2.607,2.566,2.516,2.484,2.465,2.453,2.45,2.447,2.45,2.46,2.463,2.477,2.516,2.625,2.771,2.855,2.898,2.908,2.898,2.871,2.828,2.768,2.662,2.564,2.484,2.443,2.428,2.424,2.424,2.426,2.43,2.432,2.434,2.438,2.447,2.465,2.494,2.512,2.518,2.525,2.525,2.523,2.521,2.525,2.53,2.533,2.533,2.531,2.531,2.54,2.555,2.572,2.598,2.627,2.678,2.736,2.816,2.89,2.95,2.998,3.031,3.057,3.082,3.092,3.092,3.092,3.086,3.064,3.025,2.984,2.965,2.951,2.941,2.934,2.93,2.922,2.912,2.904,2.9,2.893,2.887,2.879,2.871,2.857,2.84,2.826,2.809,2.799,2.791,2.783,2.783,2.783,2.79,2.79,2.79,2.79,2.777,2.771,2.762,2.758,2.754,2.748,2.746,2.746,2.746,2.748,2.75,2.752,2.756,2.762,2.773,2.781,2.787,2.79,2.79,2.791,2.791,2.79,2.787,2.787,2.783,2.783,2.783,2.783,2.783,2.783,2.79,2.791,2.787,2.783,2.785,2.79,2.787,2.791,2.797,2.809,2.816,2.814,2.805,2.785,2.754,2.725,2.674,2.615,2.584,2.578,2.572,2.57,2.57,2.574,2.576,2.572,2.572,2.572,2.576,2.572,2.572,2.566,2.57,2.574,2.584,2.586,2.582,2.576,2.57,2.566,2.56,2.56,2.56,2.562,2.562,2.564,2.566,2.564,2.562,2.56,2.562,2.564,2.566,2.566,2.57,2.576,2.58,2.582,2.588,2.592,2.596,2.602,2.602,2.605,2.605,2.604,2.602,2.6,2.594,2.588,2.582,2.582,2.58,2.578,2.576,2.576,2.572,2.57,2.57,2.57,2.57,2.572,2.572,2.572,2.574,2.58,2.58,2.576,2.572,2.576,2.58,2.584,2.59,2.59,2.59,2.592,2.596,2.6,2.6,2.604,2.611,2.615,2.613,2.611,2.611,2.611,2.61,2.61,2.607,2.602,2.598,2.598,2.598,2.598,2.596,2.602,2.607,2.607,2.605,2.6,2.602,2.607,2.613,2.617,2.62,2.62,2.62,2.623,2.62,2.623,2.623,2.627,2.637,2.639,2.639,2.639,2.643,2.64,2.637,2.633,2.617,2.598,2.574,2.56,2.545,2.533,2.531,2.53,2.537,2.557,2.576,2.613,2.629,2.623,2.611,2.611,2.625,2.625,2.613,2.605,2.594,2.59,2.586,2.584,2.58,2.576,2.56
0.7837,0.7803,0.78,0.7793,0.7764,0.7744,0.7754,0.776,0.776,0.7744,0.7744,0.774,0.775,0.7764,0.7764,0.777,0.779,0.78,0.7812,0.7827,0.7837,0.7847,0.7856,0.7876,0.7896,0.7905,0.7915,0.793,0.795,0.7974,0.7993,0.801,0.8013,0.8027,0.805,0.807,0.808,0.811,0.8135,0.816,0.8184,0.82,0.822,0.8237,0.826,0.828,0.8306,0.834,0.836,0.8384,0.84,0.843,0.845,0.847,0.8496,0.852,0.8545,0.8564,0.8594,0.8613,0.8633,0.8657,0.8677,0.87,0.872,0.8735,0.8755,0.878,0.8794,0.8804,0.882,0.884,0.8867,0.888,0.89,0.8916,0.8926,0.8955,0.897,0.8984,0.9004,0.903,0.905,0.9077,0.9087,0.9097,0.911,0.9116,0.9155,0.917,0.918,0.9194,0.921,0.922,0.9224,0.9233,0.924,0.924,0.9243,0.925,0.925,0.926,0.9263,0.929,0.932,0.9336,0.9355,0.938,0.9404,0.942,0.944,0.945,0.9473,0.949,0.951,0.9536,0.9565,0.9585,0.9604,0.9634,0.966,0.968,0.969,0.9717,0.9736,0.9746,0.9766,0.9795,0.9824,0.985,0.989,0.992,0.995,1.002,1.006,1.008,1.011,1.018,1.027,1.032,1.035,1.049,1.055,1.054,1.062,1.061,1.059,1.052,1.065,1.111,1.184,1.313,1.563,1.923,2.29,2.652,2.908,3.043,3.129,3.152,3.12,3.129,3.143,3.139,3.125,3.129,3.15,3.16,3.162,3.174,3.193,3.217,3.217,3.195,3.168,3.14,3.113,3.096,3.074,3.053,3.04,3.03,3.02,3.01,3.0,2.986,2.965,2.936,2.9,2.857,2.799,2.773,2.752,2.734,2.71,2.69,2.67,2.656,2.645,2.633,2.63,2.643,2.639,2.62,2.592,2.547,2.504,2.477,2.459,2.451,2.445,2.441,2.443,2.45,2.455,2.465,2.494,2.55,2.676,2.799,2.86,2.879,2.873,2.85,2.809,2.74,2.621,2.533,2.467,2.434,2.42,2.416,2.416,2.416,2.418,2.422,2.424,2.43,2.438,2.451,2.477,2.502,2.512,2.518,2.52,2.518,2.516,2.518,2.525,2.53,2.531,2.527,2.531,2.54,2.549,2.566,2.586,2.61,2.646,2.695,2.75,2.818,2.87,2.908,2.941,2.965,2.98,2.986,2.98,2.96,2.934,2.89,2.857,2.832,2.816,2.81,2.809,2.812,2.816,2.818,2.814,2.816,2.816,2.81,2.8,2.795,2.785,2.771,2.756,2.748,2.738,2.727,2.719,2.715,2.717,2.717,2.717,2.715,2.715,2.71,2.707,2.7,2.69,2.693,2.693,2.693,2.695,2.7,2.703,2.709,2.71,2.71,2.715,2.72,2.734,2.742,2.752,2.756,2.756,2.756,2.756,2.756,2.756,2.752,2.752,2.75,2.75,2.75,2.752,2.756,2.762,2.76,2.762,2.76,2.762,2.766,2.762,2.766,2.777,2.79,2.795,2.795,2.785,2.768,2.736,2.709,2.666,2.605,2.572,2.564,2.56,2.559,2.56,2.562,2.562,2.559,2.559,2.562,2.562,2.559,2.557,2.549,2.547,2.553,2.559,2.564,2.56,2.555,2.55,2.549,2.547,2.545,2.549,2.549,2.55,2.55,2.555,2.549,2.55,2.55,2.557,2.56,2.562,2.566,2.572,2.578,2.582,2.582,2.588,2.59,2.594,2.598,2.604,2.607,2.61,2.607,2.604,2.602,2.596,2.588,2.584,2.582,2.582,2.58,2.578,2.576,2.576,2.574,2.574,2.572,2.572,2.574,2.58,2.578,2.58,2.582,2.582,2.582,2.58,2.58,2.584,2.59,2.59,2.596,2.596,2.596,2.602,2.602,2.604,2.605,2.617,2.621,2.617,2.615,2.613,2.611,2.611,2.611,2.611,2.604,2.602,2.602,2.602,2.6,2.6,2.604,2.61,2.61,2.605,2.602,2.605,2.607,2.613,2.617,2.62,2.617,2.617,2.621,2.623,2.623,2.621,2.629,2.637,2.64,2.643,2.643,2.645,2.643,2.639,2.637,2.62,2.598,2.578,2.564,2.547,2.537,2.537,2.531,2.543,2.56,2.584,2.615,2.635,2.63,2.617,2.617,2.629,2.629,2.617,2.605,2.596,2.588,2.586,2.586,2.58,2.578,2.564
0.7847,0.7817,0.781,0.7803,0.778,0.7764,0.7773,0.778,0.778,0.7773,0.777,0.7764,0.7773,0.7783,0.779,0.7793,0.7812,0.7827,0.784,0.785,0.786,0.7876,0.788,0.7905,0.792,0.7935,0.795,0.797,0.7983,0.801,0.803,0.8037,0.8047,0.8057,0.8086,0.8105,0.812,0.8145,0.8174,0.82,0.822,0.8237,0.8257,0.8276,0.8296,0.8315,0.8345,0.837,0.8394,0.842,0.8438,0.8457,0.848,0.85,0.852,0.855,0.857,0.8594,0.862,0.8643,0.8657,0.8677,0.8696,0.872,0.8735,0.8755,0.877,0.879,0.88,0.881,0.8823,0.8843,0.8867,0.8887,0.8906,0.8916,0.893,0.8945,0.896,0.8984,0.9004,0.9023,0.9043,0.9067,0.9077,0.9087,0.9097,0.9116,0.9146,0.916,0.9175,0.919,0.92,0.9214,0.922,0.9224,0.923,0.9233,0.924,0.9243,0.9243,0.925,0.9263,0.9287,0.931,0.9326,0.935,0.9375,0.94,0.941,0.9424,0.9443,0.946,0.948,0.9507,0.953,0.956,0.958,0.96,0.9624,0.9663,0.9673,0.969,0.972,0.973,0.974,0.976,0.978,0.981,0.9844,0.9883,0.991,0.9946,1.001,1.004,1.006,1.009,1.017,1.026,1.029,1.031,1.045,1.053,1.051,1.06,1.062,1.06,1.05,1.061,1.1045,1.168,1.287,1.513,1.86,2.209,2.596,2.87,3.006,3.092,3.11,3.074,3.088,3.102,3.096,3.078,3.082,3.111,3.143,3.156,3.182,3.207,3.22,3.217,3.191,3.143,3.092,3.05,3.03,3.014,3.006,3.01,3.014,3.016,2.996,2.973,2.945,2.918,2.893,2.865,2.83,2.791,2.758,2.736,2.723,2.707,2.69,2.672,2.656,2.64,2.625,2.633,2.639,2.63,2.607,2.576,2.527,2.494,2.473,2.459,2.45,2.445,2.441,2.443,2.445,2.45,2.455,2.477,2.514,2.584,2.713,2.8,2.832,2.834,2.814,2.773,2.707,2.592,2.52,2.465,2.438,2.428,2.426,2.426,2.428,2.432,2.43,2.43,2.436,2.443,2.453,2.469,2.496,2.512,2.516,2.516,2.516,2.514,2.516,2.518,2.52,2.52,2.523,2.53,2.535,2.543,2.559,2.576,2.598,2.623,2.662,2.705,2.748,2.783,2.818,2.846,2.863,2.871,2.865,2.852,2.828,2.795,2.764,2.748,2.73,2.73,2.727,2.727,2.725,2.727,2.73,2.729,2.727,2.727,2.72,2.713,2.705,2.697,2.688,2.678,2.67,2.662,2.654,2.648,2.646,2.645,2.645,2.646,2.646,2.648,2.652,2.652,2.652,2.65,2.652,2.656,2.66,2.662,2.666,2.672,2.68,2.684,2.684,2.688,2.695,2.703,2.713,2.719,2.723,2.725,2.725,2.723,2.72,2.719,2.719,2.719,2.717,2.717,2.72,2.723,2.727,2.734,2.734,2.736,2.736,2.736,2.736,2.736,2.742,2.752,2.76,2.766,2.764,2.754,2.729,2.707,2.68,2.643,2.584,2.55,2.541,2.54,2.541,2.541,2.543,2.543,2.537,2.54,2.543,2.547,2.545,2.541,2.535,2.533,2.533,2.543,2.545,2.543,2.54,2.541,2.537,2.537,2.54,2.543,2.547,2.55,2.55,2.553,2.55,2.553,2.557,2.562,2.566,2.572,2.574,2.58,2.586,2.588,2.59,2.59,2.594,2.598,2.6,2.605,2.611,2.613,2.613,2.61,2.605,2.602,2.594,2.588,2.586,2.586,2.582,2.582,2.578,2.578,2.578,2.576,2.574,2.574,2.578,2.58,2.58,2.58,2.58,2.582,2.58,2.574,2.578,2.582,2.584,2.588,2.59,2.592,2.592,2.596,2.598,2.6,2.602,2.613,2.617,2.615,2.613,2.611,2.611,2.611,2.611,2.61,2.604,2.598,2.598,2.598,2.598,2.596,2.602,2.607,2.61,2.605,2.602,2.602,2.605,2.613,2.617,2.617,2.613,2.613,2.617,2.617,2.617,2.62,2.623,2.63,2.635,2.637,2.635,2.639,2.637,2.635,2.629,2.613,2.594,2.572,2.56,2.545,2.535,2.535,2.533,2.545,2.562,2.588,2.62,2.637,2.633,2.621,2.617,2.633,2.635,2.621,2.61,2.6,2.592,2.592,2.59,2.584,2.584,2.566
0.785,0.7827,0.7817,0.7817,0.7793,0.7773,0.778,0.7793,0.779,0.7783,0.7773,0.7773,0.779,0.78,0.781,0.7812,0.7827,0.784,0.7856,0.787,0.788,0.7896,0.79,0.7925,0.7944,0.795,0.797,0.7993,0.801,0.803,0.805,0.806,0.807,0.809,0.811,0.813,0.815,0.8174,0.82,0.822,0.824,0.8257,0.828,0.83,0.8325,0.8345,0.837,0.839,0.8413,0.8438,0.8457,0.848,0.85,0.852,0.8545,0.857,0.859,0.861,0.864,0.865,0.8667,0.8687,0.8716,0.8726,0.8755,0.8765,0.878,0.8794,0.8804,0.8813,0.8823,0.884,0.8867,0.888,0.89,0.891,0.892,0.894,0.896,0.8975,0.8994,0.9014,0.9033,0.9053,0.9077,0.907,0.9087,0.911,0.9136,0.916,0.9165,0.919,0.92,0.92,0.921,0.922,0.922,0.9224,0.9233,0.924,0.9243,0.9243,0.926,0.9277,0.93,0.932,0.935,0.9365,0.9385,0.941,0.942,0.945,0.9453,0.948,0.95,0.9536,0.9546,0.9575,0.96,0.9624,0.9653,0.967,0.9697,0.971,0.973,0.9736,0.976,0.9775,0.981,0.9834,0.987,0.991,0.994,1.0,1.004,1.005,1.008,1.016,1.026,1.027,1.029,1.043,1.052,1.048,1.059,1.0625,1.06,1.049,1.056,1.096,1.151,1.262,1.462,1.782,2.145,2.54,2.846,2.984,3.068,3.09,3.053,3.066,3.074,3.064,3.057,3.064,3.125,3.15,3.16,3.178,3.195,3.2,3.182,3.145,3.105,3.047,2.99,2.967,2.959,2.963,2.984,3.0,3.0,2.98,2.945,2.91,2.88,2.85,2.83,2.809,2.785,2.752,2.725,2.709,2.695,2.68,2.666,2.65,2.63,2.62,2.627,2.627,2.615,2.596,2.562,2.514,2.486,2.465,2.45,2.445,2.441,2.44,2.44,2.441,2.44,2.445,2.46,2.484,2.535,2.62,2.725,2.764,2.771,2.758,2.719,2.658,2.56,2.504,2.455,2.44,2.426,2.428,2.434,2.441,2.441,2.438,2.438,2.443,2.445,2.453,2.465,2.486,2.506,2.514,2.516,2.514,2.51,2.512,2.506,2.51,2.512,2.516,2.523,2.533,2.541,2.549,2.568,2.584,2.604,2.63,2.668,2.693,2.715,2.734,2.744,2.76,2.768,2.766,2.754,2.734,2.71,2.697,2.68,2.67,2.672,2.668,2.664,2.662,2.658,2.654,2.65,2.646,2.64,2.635,2.63,2.627,2.623,2.617,2.613,2.607,2.602,2.596,2.592,2.592,2.586,2.588,2.59,2.596,2.602,2.607,2.611,2.611,2.61,2.613,2.62,2.623,2.629,2.63,2.64,2.645,2.65,2.652,2.658,2.666,2.674,2.68,2.686,2.688,2.69,2.691,2.688,2.686,2.686,2.686,2.686,2.686,2.686,2.686,2.69,2.693,2.703,2.707,2.707,2.707,2.703,2.7,2.695,2.695,2.705,2.71,2.719,2.715,2.701,2.684,2.666,2.643,2.605,2.56,2.531,2.521,2.521,2.523,2.527,2.53,2.527,2.527,2.525,2.53,2.533,2.533,2.53,2.525,2.523,2.525,2.535,2.537,2.531,2.531,2.531,2.535,2.535,2.54,2.545,2.547,2.55,2.557,2.56,2.56,2.562,2.568,2.572,2.578,2.58,2.584,2.588,2.592,2.594,2.596,2.6,2.6,2.604,2.607,2.613,2.621,2.621,2.621,2.617,2.615,2.61,2.602,2.596,2.594,2.594,2.59,2.586,2.584,2.584,2.582,2.578,2.58,2.58,2.58,2.582,2.582,2.582,2.582,2.584,2.578,2.574,2.576,2.58,2.58,2.586,2.59,2.59,2.59,2.596,2.596,2.598,2.6,2.611,2.62,2.617,2.613,2.613,2.611,2.613,2.611,2.611,2.604,2.6,2.6,2.598,2.596,2.596,2.604,2.611,2.61,2.605,2.6,2.604,2.607,2.613,2.62,2.62,2.613,2.611,2.615,2.615,2.617,2.617,2.621,2.625,2.63,2.635,2.63,2.635,2.635,2.633,2.625,2.611,2.59,2.572,2.56,2.547,2.535,2.535,2.531,2.549,2.562,2.592,2.623,2.639,2.637,2.623,2.621,2.635,2.639,2.623,2.613,2.602,2.596,2.592,2.59,2.59,2.586,2.57
0.7856,0.7827,0.7827,0.782,0.78,0.777,0.7773,0.78,0.7793,0.779,0.7783,0.7783,0.779,0.78,0.781,0.7817,0.783,0.785,0.786,0.7876,0.7886,0.79,0.7915,0.793,0.7954,0.796,0.7983,0.7993,0.8013,0.8037,0.806,0.8076,0.8076,0.8096,0.812,0.814,0.8154,0.818,0.821,0.823,0.8247,0.8276,0.8286,0.8306,0.833,0.835,0.837,0.8394,0.843,0.8438,0.8467,0.848,0.851,0.853,0.855,0.8574,0.8594,0.862,0.8643,0.866,0.868,0.8696,0.8716,0.8735,0.8755,0.8774,0.8774,0.8794,0.8804,0.882,0.8823,0.8843,0.886,0.8887,0.89,0.891,0.892,0.893,0.8955,0.897,0.899,0.9014,0.9033,0.9053,0.9067,0.9077,0.908,0.91,0.913,0.9146,0.916,0.918,0.92,0.92,0.921,0.9214,0.922,0.9224,0.9224,0.924,0.9233,0.9243,0.9243,0.9272,0.9297,0.9316,0.933,0.936,0.9375,0.94,0.941,0.9424,0.945,0.9473,0.949,0.952,0.9546,0.957,0.959,0.9624,0.965,0.967,0.9683,0.971,0.973,0.9736,0.976,0.9775,0.98,0.9834,0.987,0.9893,0.9937,0.9985,1.003,1.004,1.008,1.016,1.023,1.026,1.028,1.041,1.051,1.046,1.056,1.0625,1.06,1.048,1.052,1.087,1.136,1.235,1.408,1.701,2.08,2.48,2.812,2.96,3.043,3.066,3.04,3.053,3.059,3.035,3.027,3.06,3.098,3.111,3.113,3.117,3.123,3.115,3.084,3.047,3.01,2.97,2.932,2.916,2.92,2.93,2.941,2.943,2.94,2.922,2.893,2.857,2.83,2.809,2.791,2.78,2.758,2.738,2.719,2.705,2.691,2.676,2.662,2.643,2.635,2.627,2.62,2.611,2.598,2.576,2.541,2.502,2.477,2.457,2.441,2.436,2.434,2.43,2.43,2.432,2.43,2.43,2.443,2.459,2.5,2.555,2.645,2.686,2.695,2.682,2.65,2.602,2.52,2.48,2.443,2.43,2.424,2.422,2.43,2.438,2.438,2.434,2.43,2.432,2.44,2.443,2.453,2.47,2.492,2.502,2.506,2.504,2.504,2.504,2.496,2.498,2.498,2.504,2.512,2.527,2.533,2.541,2.555,2.57,2.588,2.602,2.625,2.645,2.66,2.67,2.676,2.676,2.676,2.674,2.668,2.658,2.646,2.64,2.629,2.617,2.62,2.613,2.61,2.602,2.598,2.592,2.586,2.58,2.574,2.57,2.566,2.562,2.56,2.559,2.553,2.549,2.545,2.543,2.541,2.54,2.535,2.535,2.541,2.545,2.553,2.56,2.56,2.568,2.57,2.576,2.584,2.584,2.59,2.596,2.6,2.61,2.613,2.617,2.621,2.633,2.64,2.646,2.648,2.652,2.654,2.65,2.654,2.654,2.65,2.65,2.65,2.648,2.648,2.648,2.648,2.652,2.662,2.664,2.662,2.658,2.648,2.65,2.64,2.64,2.643,2.643,2.643,2.643,2.637,2.627,2.607,2.586,2.566,2.54,2.52,2.514,2.516,2.516,2.516,2.521,2.52,2.516,2.516,2.518,2.52,2.52,2.518,2.516,2.516,2.518,2.527,2.531,2.531,2.531,2.531,2.531,2.531,2.535,2.543,2.547,2.553,2.56,2.562,2.566,2.57,2.576,2.58,2.582,2.586,2.586,2.59,2.594,2.6,2.602,2.604,2.607,2.611,2.615,2.621,2.627,2.627,2.625,2.623,2.621,2.615,2.605,2.6,2.6,2.6,2.594,2.59,2.59,2.588,2.586,2.584,2.582,2.58,2.584,2.586,2.586,2.586,2.586,2.586,2.582,2.576,2.58,2.58,2.584,2.586,2.59,2.59,2.592,2.596,2.598,2.6,2.604,2.615,2.62,2.62,2.62,2.617,2.615,2.615,2.615,2.611,2.607,2.602,2.602,2.602,2.598,2.598,2.604,2.611,2.611,2.61,2.605,2.607,2.611,2.617,2.62,2.623,2.617,2.615,2.617,2.617,2.62,2.62,2.621,2.627,2.629,2.63,2.633,2.633,2.637,2.637,2.627,2.611,2.588,2.574,2.56,2.55,2.537,2.535,2.535,2.549,2.566,2.594,2.629,2.643,2.639,2.625,2.62,2.635,2.639,2.623,2.615,2.605,2.598,2.594,2.59,2.586,2.588,2.57
0.7856,0.7837,0.7827,0.782,0.78,0.777,0.7783,0.7803,0.78,0.7793,0.779,0.779,0.78,0.7812,0.7817,0.782,0.783,0.785,0.786,0.7876,0.7896,0.79,0.7915,0.793,0.7954,0.7964,0.7983,0.799,0.801,0.8037,0.8057,0.8076,0.8076,0.8096,0.812,0.814,0.8154,0.818,0.8213,0.823,0.825,0.827,0.829,0.8315,0.834,0.8354,0.838,0.841,0.8433,0.845,0.847,0.8496,0.8516,0.8535,0.8555,0.858,0.8604,0.863,0.8647,0.8667,0.8687,0.87,0.8716,0.874,0.876,0.8774,0.879,0.8804,0.8813,0.882,0.8833,0.885,0.887,0.8887,0.8906,0.891,0.892,0.894,0.8955,0.897,0.899,0.9014,0.9033,0.9053,0.9067,0.907,0.9087,0.909,0.912,0.9146,0.916,0.9175,0.9185,0.92,0.92,0.921,0.9204,0.9214,0.9224,0.923,0.923,0.923,0.9243,0.927,0.929,0.931,0.933,0.935,0.9375,0.9385,0.941,0.9424,0.945,0.947,0.9487,0.951,0.9546,0.9565,0.9585,0.961,0.964,0.9663,0.9673,0.97,0.972,0.9727,0.9746,0.9775,0.98,0.982,0.986,0.9893,0.9927,0.9976,1.003,1.003,1.007,1.014,1.022,1.024,1.027,1.039,1.049,1.044,1.052,1.063,1.062,1.051,1.052,1.084,1.124,1.216,1.375,1.645,2.027,2.44,2.793,2.94,3.016,3.053,3.037,3.045,3.053,3.033,3.021,3.031,3.049,3.049,3.035,3.027,3.014,2.994,2.963,2.918,2.889,2.863,2.852,2.86,2.867,2.873,2.873,2.875,2.873,2.861,2.838,2.8,2.781,2.773,2.768,2.758,2.744,2.725,2.713,2.701,2.695,2.688,2.672,2.654,2.635,2.617,2.607,2.598,2.582,2.555,2.518,2.488,2.467,2.451,2.434,2.428,2.426,2.424,2.426,2.428,2.422,2.422,2.428,2.441,2.469,2.504,2.572,2.604,2.61,2.598,2.568,2.525,2.477,2.447,2.424,2.418,2.416,2.418,2.422,2.428,2.434,2.43,2.428,2.428,2.432,2.438,2.443,2.459,2.477,2.49,2.49,2.488,2.486,2.488,2.484,2.482,2.482,2.484,2.496,2.506,2.512,2.514,2.523,2.531,2.545,2.562,2.58,2.59,2.594,2.6,2.602,2.604,2.604,2.604,2.6,2.59,2.584,2.576,2.57,2.564,2.562,2.559,2.553,2.547,2.543,2.54,2.533,2.53,2.525,2.52,2.52,2.518,2.516,2.516,2.512,2.51,2.51,2.512,2.51,2.508,2.508,2.506,2.51,2.514,2.518,2.525,2.527,2.531,2.537,2.545,2.55,2.555,2.559,2.562,2.572,2.578,2.584,2.588,2.594,2.6,2.607,2.611,2.615,2.617,2.617,2.623,2.623,2.625,2.623,2.621,2.615,2.613,2.61,2.607,2.605,2.605,2.61,2.607,2.602,2.596,2.592,2.586,2.576,2.568,2.57,2.572,2.572,2.572,2.566,2.557,2.545,2.537,2.531,2.523,2.514,2.514,2.514,2.516,2.518,2.52,2.516,2.516,2.512,2.512,2.508,2.508,2.506,2.506,2.508,2.514,2.521,2.527,2.527,2.527,2.527,2.531,2.531,2.54,2.545,2.547,2.555,2.56,2.566,2.566,2.57,2.578,2.58,2.582,2.584,2.588,2.59,2.594,2.598,2.602,2.605,2.61,2.613,2.62,2.623,2.629,2.63,2.627,2.623,2.623,2.617,2.61,2.602,2.602,2.602,2.594,2.592,2.59,2.588,2.586,2.584,2.584,2.582,2.584,2.586,2.584,2.586,2.59,2.588,2.582,2.576,2.578,2.58,2.582,2.586,2.59,2.59,2.592,2.596,2.6,2.602,2.604,2.613,2.62,2.62,2.613,2.615,2.613,2.615,2.613,2.611,2.605,2.602,2.602,2.598,2.596,2.594,2.604,2.611,2.611,2.607,2.605,2.605,2.611,2.615,2.621,2.623,2.617,2.615,2.62,2.62,2.62,2.62,2.621,2.629,2.63,2.635,2.633,2.637,2.639,2.639,2.629,2.615,2.592,2.578,2.566,2.549,2.537,2.535,2.535,2.549,2.566,2.598,2.629,2.645,2.639,2.627,2.621,2.635,2.639,2.623,2.615,2.605,2.6,2.594,2.59,2.588,2.59,2.57
0.786,0.7837,0.783,0.783,0.7803,0.7773,0.7793,0.781,0.781,0.78,0.78,0.7793,0.78,0.7817,0.782,0.783,0.783,0.7856,0.7866,0.7886,0.7896,0.7905,0.792,0.794,0.796,0.7974,0.7983,0.8,0.802,0.804,0.8066,0.8076,0.808,0.8105,0.8125,0.8145,0.8164,0.819,0.822,0.824,0.826,0.828,0.8306,0.8325,0.835,0.837,0.839,0.842,0.8438,0.846,0.848,0.85,0.8535,0.855,0.857,0.8594,0.8613,0.864,0.8657,0.8687,0.87,0.8716,0.873,0.875,0.8774,0.8784,0.8794,0.8804,0.8813,0.8823,0.884,0.8853,0.8867,0.889,0.89,0.891,0.892,0.894,0.8955,0.897,0.899,0.9014,0.903,0.9053,0.9067,0.9077,0.908,0.909,0.9126,0.914,0.9155,0.9165,0.9175,0.918,0.919,0.9194,0.92,0.92,0.9214,0.922,0.922,0.922,0.924,0.926,0.9277,0.9297,0.932,0.934,0.9365,0.9375,0.9395,0.9414,0.9434,0.946,0.9478,0.9497,0.953,0.955,0.958,0.9604,0.964,0.966,0.968,0.97,0.972,0.9727,0.974,0.9766,0.9795,0.9814,0.985,0.9883,0.9917,0.997,1.002,1.003,1.007,1.014,1.021,1.023,1.026,1.038,1.047,1.045,1.048,1.064,1.066,1.056,1.055,1.082,1.116,1.196,1.348,1.609,1.995,2.422,2.777,2.922,2.998,3.033,3.012,3.016,3.02,2.994,2.979,2.977,2.98,2.967,2.943,2.924,2.902,2.867,2.816,2.771,2.754,2.75,2.752,2.78,2.795,2.8,2.807,2.812,2.812,2.805,2.783,2.758,2.744,2.74,2.74,2.736,2.727,2.71,2.701,2.693,2.697,2.691,2.674,2.65,2.633,2.615,2.604,2.588,2.57,2.541,2.506,2.48,2.457,2.445,2.428,2.42,2.42,2.418,2.42,2.42,2.418,2.414,2.416,2.424,2.441,2.467,2.498,2.518,2.516,2.5,2.482,2.455,2.434,2.418,2.408,2.406,2.406,2.41,2.414,2.42,2.422,2.422,2.418,2.418,2.424,2.43,2.438,2.447,2.463,2.477,2.475,2.47,2.467,2.467,2.467,2.469,2.467,2.469,2.473,2.477,2.477,2.482,2.486,2.496,2.506,2.518,2.533,2.54,2.54,2.54,2.537,2.535,2.535,2.533,2.531,2.523,2.52,2.518,2.516,2.516,2.51,2.506,2.504,2.5,2.496,2.494,2.49,2.488,2.488,2.486,2.482,2.484,2.486,2.484,2.484,2.484,2.484,2.484,2.486,2.484,2.484,2.484,2.486,2.49,2.496,2.502,2.502,2.506,2.514,2.521,2.525,2.531,2.535,2.541,2.547,2.557,2.56,2.566,2.566,2.572,2.578,2.58,2.588,2.59,2.592,2.594,2.596,2.598,2.594,2.592,2.586,2.578,2.574,2.566,2.562,2.557,2.557,2.553,2.545,2.535,2.533,2.523,2.514,2.51,2.512,2.514,2.516,2.512,2.506,2.502,2.5,2.498,2.5,2.5,2.502,2.506,2.506,2.51,2.514,2.514,2.512,2.508,2.504,2.502,2.5,2.5,2.496,2.498,2.502,2.506,2.516,2.521,2.52,2.52,2.521,2.53,2.531,2.54,2.545,2.547,2.553,2.555,2.559,2.559,2.562,2.57,2.574,2.578,2.58,2.58,2.586,2.59,2.592,2.6,2.604,2.607,2.611,2.615,2.621,2.627,2.629,2.627,2.623,2.623,2.615,2.61,2.605,2.602,2.602,2.596,2.592,2.59,2.588,2.586,2.584,2.582,2.58,2.58,2.584,2.582,2.586,2.586,2.586,2.58,2.576,2.576,2.58,2.582,2.586,2.59,2.59,2.592,2.596,2.598,2.6,2.602,2.611,2.613,2.611,2.611,2.611,2.611,2.611,2.611,2.61,2.604,2.6,2.598,2.594,2.592,2.59,2.6,2.607,2.607,2.605,2.604,2.605,2.607,2.611,2.615,2.617,2.613,2.611,2.615,2.617,2.62,2.62,2.621,2.627,2.63,2.635,2.633,2.637,2.639,2.639,2.633,2.613,2.592,2.578,2.568,2.549,2.537,2.535,2.535,2.547,2.568,2.6,2.63,2.646,2.639,2.629,2.62,2.63,2.635,2.621,2.613,2.605,2.6,2.594,2.59,2.59,2.59,2.57
0.7866,0.7847,0.784,0.7847,0.781,0.7783,0.78,0.7817,0.7817,0.7812,0.781,0.781,0.7817,0.783,0.7837,0.7847,0.7847,0.7866,0.7886,0.7896,0.7905,0.792,0.7935,0.795,0.7974,0.7983,0.8,0.8013,0.803,0.8057,0.808,0.8096,0.81,0.812,0.8145,0.8164,0.818,0.8203,0.823,0.826,0.828,0.8296,0.832,0.835,0.8364,0.8384,0.8403,0.843,0.8457,0.848,0.85,0.852,0.855,0.8564,0.858,0.8613,0.8633,0.865,0.867,0.869,0.871,0.873,0.8745,0.8765,0.8784,0.8794,0.8804,0.881,0.883,0.8833,0.8843,0.885,0.8867,0.8887,0.89,0.891,0.892,0.894,0.8955,0.897,0.899,0.9004,0.9023,0.905,0.9067,0.907,0.9077,0.909,0.912,0.913,0.915,0.916,0.9165,0.917,0.9175,0.92,0.9194,0.92,0.9204,0.9214,0.922,0.922,0.923,0.9253,0.9272,0.929,0.931,0.9336,0.936,0.9375,0.939,0.941,0.9424,0.9453,0.9473,0.9497,0.952,0.955,0.9575,0.9604,0.9634,0.965,0.967,0.969,0.971,0.972,0.974,0.9766,0.9785,0.981,0.9844,0.9873,0.9907,0.996,1.001,1.003,1.006,1.014,1.02,1.021,1.024,1.036,1.045,1.045,1.047,1.064,1.067,1.059,1.057,1.079,1.107,1.181,1.324,1.587,1.961,2.412,2.756,2.898,2.973,2.998,2.957,2.955,2.945,2.912,2.898,2.906,2.906,2.887,2.854,2.82,2.77,2.727,2.697,2.68,2.674,2.672,2.678,2.691,2.707,2.717,2.72,2.727,2.732,2.725,2.713,2.709,2.703,2.701,2.703,2.705,2.701,2.691,2.684,2.676,2.676,2.676,2.66,2.64,2.623,2.607,2.596,2.582,2.56,2.531,2.496,2.47,2.451,2.436,2.422,2.416,2.412,2.412,2.408,2.408,2.406,2.406,2.406,2.408,2.412,2.43,2.443,2.451,2.445,2.43,2.416,2.41,2.404,2.4,2.398,2.396,2.4,2.402,2.406,2.412,2.418,2.416,2.412,2.412,2.418,2.422,2.43,2.438,2.451,2.457,2.457,2.45,2.445,2.447,2.445,2.443,2.441,2.445,2.445,2.441,2.445,2.45,2.455,2.463,2.469,2.477,2.482,2.488,2.494,2.494,2.494,2.49,2.484,2.484,2.484,2.479,2.477,2.473,2.473,2.469,2.467,2.467,2.46,2.46,2.46,2.46,2.46,2.46,2.463,2.463,2.463,2.463,2.465,2.465,2.465,2.465,2.465,2.465,2.469,2.469,2.469,2.467,2.467,2.47,2.479,2.482,2.484,2.49,2.494,2.502,2.508,2.51,2.516,2.521,2.525,2.531,2.537,2.541,2.545,2.549,2.555,2.557,2.559,2.562,2.564,2.566,2.564,2.566,2.56,2.557,2.55,2.545,2.533,2.521,2.516,2.512,2.512,2.51,2.502,2.494,2.484,2.482,2.473,2.467,2.47,2.47,2.473,2.47,2.465,2.46,2.46,2.46,2.465,2.469,2.477,2.48,2.486,2.494,2.502,2.502,2.498,2.494,2.494,2.494,2.494,2.494,2.492,2.494,2.498,2.502,2.512,2.516,2.514,2.516,2.52,2.523,2.527,2.533,2.541,2.545,2.547,2.549,2.553,2.555,2.56,2.566,2.57,2.576,2.578,2.58,2.584,2.588,2.592,2.596,2.604,2.607,2.611,2.615,2.621,2.629,2.629,2.627,2.625,2.623,2.617,2.611,2.605,2.605,2.602,2.598,2.594,2.592,2.59,2.588,2.586,2.584,2.58,2.582,2.586,2.582,2.584,2.586,2.586,2.58,2.576,2.576,2.58,2.58,2.586,2.588,2.59,2.592,2.596,2.598,2.6,2.602,2.61,2.611,2.611,2.611,2.611,2.611,2.611,2.611,2.607,2.604,2.598,2.596,2.59,2.59,2.59,2.596,2.605,2.605,2.602,2.602,2.602,2.605,2.61,2.611,2.611,2.61,2.607,2.611,2.613,2.615,2.617,2.623,2.625,2.627,2.633,2.633,2.637,2.639,2.639,2.63,2.613,2.592,2.58,2.568,2.55,2.54,2.537,2.535,2.545,2.572,2.6,2.633,2.646,2.64,2.629,2.621,2.63,2.635,2.621,2.613,2.605,2.598,2.594,2.59,2.59,2.59,2.572
0.787,0.7847,0.7847,0.7837,0.781,0.779,0.7803,0.782,0.782,0.7817,0.7817,0.7817,0.782,0.783,0.784,0.7847,0.7847,0.786,0.7886,0.7896,0.7905,0.7925,0.794,0.7954,0.798,0.799,0.8,0.802,0.803,0.8057,0.808,0.81,0.81,0.8125,0.8145,0.8164,0.819,0.821,0.8247,0.8267,0.8286,0.831,0.833,0.835,0.8364,0.8394,0.8413,0.8438,0.8467,0.8486,0.85,0.8535,0.8555,0.857,0.8594,0.8613,0.864,0.8657,0.8677,0.8706,0.871,0.873,0.875,0.8765,0.8784,0.88,0.8804,0.882,0.883,0.8833,0.885,0.8867,0.888,0.89,0.891,0.8916,0.8936,0.894,0.8965,0.8984,0.9004,0.902,0.9033,0.9053,0.9067,0.907,0.9077,0.909,0.9116,0.913,0.915,0.916,0.916,0.917,0.9175,0.919,0.9194,0.9194,0.92,0.921,0.9214,0.922,0.9224,0.9243,0.9272,0.928,0.9307,0.9326,0.936,0.937,0.9385,0.94,0.942,0.9443,0.9463,0.949,0.952,0.954,0.957,0.9595,0.963,0.9644,0.9663,0.968,0.9707,0.9717,0.973,0.9756,0.978,0.9805,0.982,0.9863,0.9897,0.9946,0.9985,1.002,1.005,1.012,1.019,1.0205,1.023,1.035,1.043,1.044,1.047,1.059,1.068,1.061,1.059,1.077,1.101,1.164,1.3,1.556,1.924,2.389,2.734,2.871,2.938,2.947,2.904,2.902,2.885,2.854,2.816,2.816,2.824,2.799,2.754,2.697,2.656,2.645,2.627,2.613,2.611,2.62,2.621,2.63,2.633,2.637,2.645,2.648,2.652,2.652,2.65,2.646,2.639,2.639,2.643,2.65,2.648,2.648,2.645,2.643,2.639,2.633,2.625,2.615,2.602,2.594,2.582,2.57,2.547,2.521,2.492,2.463,2.443,2.43,2.418,2.416,2.412,2.406,2.404,2.402,2.4,2.404,2.404,2.406,2.408,2.412,2.418,2.42,2.416,2.408,2.402,2.398,2.395,2.395,2.39,2.39,2.393,2.396,2.398,2.404,2.41,2.406,2.404,2.404,2.414,2.422,2.426,2.434,2.441,2.45,2.443,2.441,2.432,2.432,2.436,2.438,2.436,2.432,2.428,2.424,2.424,2.424,2.432,2.44,2.445,2.453,2.455,2.459,2.463,2.46,2.457,2.453,2.451,2.447,2.447,2.445,2.441,2.438,2.436,2.434,2.432,2.43,2.43,2.43,2.43,2.434,2.434,2.434,2.436,2.436,2.44,2.44,2.441,2.445,2.445,2.443,2.441,2.441,2.443,2.441,2.441,2.44,2.44,2.443,2.451,2.459,2.459,2.465,2.47,2.475,2.475,2.484,2.492,2.5,2.508,2.514,2.516,2.52,2.52,2.525,2.527,2.527,2.53,2.53,2.527,2.527,2.525,2.523,2.52,2.512,2.506,2.496,2.484,2.477,2.47,2.469,2.469,2.467,2.46,2.457,2.451,2.445,2.441,2.436,2.44,2.441,2.441,2.443,2.445,2.441,2.443,2.443,2.441,2.451,2.459,2.463,2.469,2.477,2.486,2.488,2.488,2.486,2.486,2.486,2.486,2.488,2.49,2.494,2.498,2.502,2.512,2.516,2.516,2.516,2.52,2.521,2.531,2.535,2.541,2.545,2.547,2.549,2.553,2.555,2.56,2.566,2.57,2.574,2.58,2.58,2.58,2.584,2.59,2.596,2.602,2.607,2.611,2.615,2.621,2.629,2.629,2.629,2.625,2.623,2.617,2.61,2.607,2.605,2.605,2.6,2.596,2.594,2.59,2.588,2.586,2.584,2.582,2.584,2.586,2.582,2.582,2.586,2.586,2.58,2.572,2.576,2.576,2.58,2.582,2.586,2.586,2.588,2.592,2.594,2.596,2.598,2.605,2.61,2.61,2.61,2.61,2.61,2.61,2.61,2.607,2.602,2.598,2.596,2.594,2.592,2.59,2.598,2.604,2.605,2.605,2.602,2.605,2.605,2.61,2.611,2.611,2.607,2.607,2.611,2.613,2.615,2.617,2.623,2.625,2.63,2.637,2.637,2.64,2.645,2.645,2.637,2.617,2.594,2.582,2.574,2.555,2.543,2.541,2.537,2.547,2.574,2.604,2.63,2.646,2.639,2.63,2.623,2.633,2.635,2.623,2.615,2.605,2.6,2.594,2.592,2.59,2.592,2.572
0.787,0.7847,0.784,0.784,0.7812,0.779,0.78,0.782,0.7817,0.7817,0.7812,0.7812,0.7817,0.783,0.784,0.7847,0.7847,0.7866,0.788,0.7896,0.7905,0.792,0.7935,0.7954,0.798,0.799,0.8,0.802,0.8037,0.806,0.808,0.81,0.8105,0.812,0.8145,0.817,0.818,0.822,0.824,0.8267,0.8286,0.831,0.833,0.835,0.838,0.8394,0.842,0.844,0.8467,0.849,0.8506,0.8535,0.856,0.858,0.8604,0.862,0.8647,0.8657,0.8687,0.8706,0.872,0.8735,0.875,0.877,0.879,0.88,0.8804,0.8823,0.8833,0.8843,0.8857,0.8867,0.888,0.89,0.8916,0.8926,0.8936,0.8955,0.8975,0.899,0.901,0.903,0.9043,0.9053,0.9077,0.9077,0.9087,0.9097,0.912,0.913,0.914,0.915,0.916,0.916,0.9175,0.9175,0.919,0.9194,0.9194,0.9204,0.921,0.9214,0.922,0.925,0.9277,0.928,0.9307,0.9326,0.9346,0.937,0.9375,0.94,0.942,0.9443,0.9463,0.9487,0.9517,0.954,0.957,0.959,0.962,0.9644,0.9653,0.968,0.9697,0.971,0.9727,0.9746,0.977,0.9785,0.9814,0.9844,0.9883,0.9927,0.9976,1.0,1.004,1.011,1.017,1.019,1.023,1.033,1.041,1.04,1.044,1.053,1.066,1.062,1.059,1.073,1.095,1.149,1.274,1.515,1.879,2.354,2.701,2.838,2.895,2.902,2.875,2.87,2.846,2.814,2.775,2.734,2.732,2.703,2.656,2.633,2.615,2.594,2.576,2.572,2.578,2.586,2.592,2.596,2.596,2.594,2.594,2.596,2.592,2.586,2.584,2.582,2.582,2.582,2.588,2.588,2.586,2.582,2.588,2.59,2.59,2.586,2.584,2.578,2.57,2.566,2.562,2.553,2.54,2.52,2.49,2.463,2.443,2.43,2.418,2.416,2.414,2.406,2.402,2.396,2.398,2.402,2.406,2.41,2.41,2.414,2.414,2.414,2.408,2.402,2.396,2.395,2.39,2.389,2.385,2.387,2.387,2.39,2.396,2.4,2.406,2.404,2.402,2.404,2.414,2.42,2.428,2.432,2.44,2.441,2.438,2.432,2.426,2.428,2.434,2.436,2.434,2.434,2.43,2.428,2.424,2.418,2.424,2.43,2.432,2.436,2.438,2.441,2.44,2.436,2.436,2.43,2.428,2.426,2.426,2.424,2.42,2.416,2.414,2.408,2.408,2.41,2.406,2.406,2.41,2.41,2.41,2.41,2.41,2.41,2.41,2.412,2.416,2.416,2.414,2.412,2.412,2.412,2.412,2.41,2.41,2.41,2.408,2.41,2.418,2.426,2.428,2.434,2.44,2.443,2.453,2.46,2.47,2.479,2.482,2.486,2.49,2.488,2.49,2.49,2.49,2.49,2.49,2.488,2.486,2.48,2.479,2.477,2.47,2.463,2.455,2.45,2.441,2.434,2.434,2.432,2.434,2.434,2.43,2.428,2.424,2.424,2.42,2.418,2.42,2.422,2.426,2.432,2.434,2.434,2.434,2.438,2.44,2.443,2.451,2.459,2.463,2.47,2.48,2.482,2.48,2.48,2.482,2.486,2.486,2.488,2.492,2.496,2.5,2.506,2.514,2.52,2.521,2.521,2.525,2.533,2.537,2.543,2.547,2.549,2.553,2.557,2.562,2.562,2.566,2.57,2.574,2.58,2.58,2.58,2.582,2.586,2.59,2.594,2.602,2.605,2.611,2.617,2.623,2.629,2.63,2.63,2.627,2.625,2.617,2.61,2.607,2.604,2.604,2.598,2.594,2.59,2.588,2.586,2.586,2.582,2.58,2.58,2.582,2.58,2.58,2.582,2.582,2.576,2.57,2.572,2.572,2.578,2.58,2.582,2.584,2.584,2.59,2.59,2.588,2.59,2.602,2.605,2.604,2.604,2.604,2.604,2.604,2.604,2.604,2.6,2.598,2.598,2.598,2.594,2.592,2.6,2.605,2.605,2.604,2.604,2.605,2.605,2.61,2.613,2.615,2.61,2.607,2.611,2.613,2.617,2.62,2.621,2.629,2.635,2.639,2.639,2.645,2.648,2.648,2.639,2.617,2.594,2.584,2.574,2.555,2.545,2.543,2.543,2.553,2.576,2.604,2.627,2.645,2.639,2.627,2.623,2.63,2.63,2.623,2.615,2.605,2.6,2.596,2.596,2.592,2.594,2.574
0.787,0.7847,0.7847,0.784,0.7817,0.7793,0.7803,0.782,0.7817,0.781,0.7803,0.781,0.7817,0.783,0.7837,0.784,0.7856,0.7876,0.789,0.7905,0.7915,0.793,0.7944,0.7964,0.799,0.7993,0.8013,0.8022,0.8047,0.807,0.809,0.8105,0.8115,0.813,0.8154,0.8174,0.8193,0.822,0.825,0.8276,0.8296,0.832,0.834,0.836,0.8384,0.8403,0.843,0.8457,0.848,0.8506,0.8525,0.8545,0.857,0.859,0.861,0.8633,0.865,0.8677,0.8696,0.8716,0.8726,0.8745,0.8755,0.878,0.8794,0.8804,0.8813,0.883,0.8843,0.8843,0.886,0.8877,0.889,0.891,0.892,0.893,0.895,0.896,0.898,0.9,0.902,0.9033,0.905,0.9067,0.9077,0.9077,0.909,0.91,0.912,0.913,0.914,0.9155,0.916,0.916,0.917,0.9175,0.918,0.9194,0.92,0.92,0.9204,0.921,0.9224,0.9243,0.927,0.9287,0.931,0.932,0.934,0.9365,0.9375,0.94,0.9414,0.9434,0.946,0.949,0.951,0.9536,0.9556,0.959,0.961,0.9634,0.9653,0.9673,0.969,0.9707,0.9727,0.9746,0.9766,0.978,0.981,0.9844,0.987,0.9917,0.996,0.9995,1.003,1.009,1.015,1.017,1.022,1.033,1.039,1.038,1.043,1.052,1.064,1.0625,1.06,1.072,1.09,1.139,1.253,1.472,1.831,2.314,2.674,2.807,2.86,2.87,2.842,2.836,2.812,2.777,2.738,2.695,2.67,2.643,2.621,2.602,2.576,2.562,2.562,2.566,2.574,2.576,2.574,2.576,2.57,2.566,2.564,2.56,2.557,2.555,2.553,2.55,2.547,2.547,2.55,2.55,2.547,2.543,2.54,2.54,2.54,2.537,2.535,2.533,2.53,2.53,2.53,2.531,2.523,2.51,2.484,2.463,2.441,2.424,2.412,2.408,2.404,2.402,2.395,2.39,2.39,2.393,2.398,2.402,2.402,2.402,2.402,2.404,2.398,2.395,2.393,2.389,2.385,2.385,2.38,2.38,2.38,2.389,2.393,2.396,2.402,2.402,2.4,2.402,2.41,2.416,2.424,2.428,2.432,2.432,2.426,2.418,2.412,2.414,2.418,2.422,2.418,2.416,2.412,2.408,2.406,2.404,2.406,2.412,2.418,2.42,2.42,2.422,2.422,2.416,2.412,2.408,2.408,2.408,2.408,2.404,2.402,2.398,2.396,2.393,2.39,2.39,2.39,2.39,2.39,2.39,2.393,2.393,2.393,2.393,2.393,2.39,2.393,2.396,2.393,2.393,2.39,2.39,2.39,2.389,2.387,2.387,2.385,2.39,2.395,2.402,2.402,2.408,2.414,2.418,2.426,2.436,2.443,2.451,2.455,2.457,2.459,2.459,2.459,2.457,2.457,2.453,2.455,2.453,2.45,2.447,2.445,2.443,2.438,2.434,2.426,2.422,2.414,2.408,2.406,2.404,2.404,2.404,2.402,2.404,2.4,2.402,2.398,2.398,2.402,2.404,2.41,2.414,2.418,2.42,2.422,2.428,2.432,2.441,2.445,2.453,2.457,2.463,2.47,2.475,2.473,2.473,2.475,2.477,2.479,2.484,2.486,2.492,2.498,2.502,2.512,2.518,2.52,2.521,2.523,2.531,2.54,2.545,2.547,2.553,2.557,2.56,2.562,2.566,2.568,2.572,2.58,2.58,2.582,2.582,2.586,2.588,2.592,2.598,2.604,2.61,2.613,2.62,2.627,2.633,2.635,2.633,2.629,2.625,2.617,2.611,2.605,2.604,2.6,2.598,2.592,2.59,2.588,2.584,2.582,2.58,2.578,2.58,2.58,2.58,2.58,2.582,2.582,2.576,2.57,2.572,2.572,2.574,2.578,2.582,2.584,2.584,2.59,2.59,2.588,2.588,2.598,2.602,2.602,2.602,2.602,2.602,2.604,2.602,2.602,2.6,2.596,2.596,2.596,2.592,2.59,2.598,2.604,2.605,2.604,2.602,2.605,2.61,2.611,2.613,2.615,2.61,2.607,2.611,2.613,2.62,2.621,2.623,2.63,2.635,2.637,2.639,2.643,2.646,2.648,2.637,2.617,2.594,2.582,2.574,2.555,2.547,2.547,2.545,2.553,2.576,2.604,2.625,2.64,2.637,2.627,2.623,2.63,2.629,2.621,2.613,2.605,2.602,2.596,2.596,2.594,2.598,2.574
0.7876,0.7856,0.785,0.7847,0.782,0.7803,0.7803,0.782,0.7817,0.781,0.7803,0.7803,0.7817,0.783,0.7837,0.7847,0.786,0.788,0.7896,0.7915,0.792,0.7935,0.7944,0.797,0.7993,0.801,0.802,0.803,0.805,0.8076,0.81,0.8115,0.812,0.814,0.8164,0.8184,0.821,0.823,0.8257,0.8286,0.8306,0.8325,0.835,0.837,0.8394,0.842,0.8438,0.8467,0.849,0.851,0.8535,0.8555,0.858,0.8594,0.8623,0.8643,0.866,0.868,0.87,0.872,0.8735,0.8745,0.877,0.879,0.88,0.881,0.882,0.884,0.885,0.8853,0.8867,0.8877,0.889,0.891,0.8926,0.8936,0.895,0.8965,0.8984,0.9,0.9014,0.9033,0.905,0.907,0.9077,0.908,0.909,0.91,0.912,0.9136,0.9136,0.915,0.9155,0.916,0.9165,0.917,0.9175,0.9185,0.9194,0.92,0.92,0.92,0.9224,0.9243,0.926,0.928,0.93,0.932,0.934,0.9355,0.937,0.939,0.9414,0.944,0.945,0.948,0.95,0.953,0.9556,0.958,0.9614,0.963,0.965,0.9673,0.9688,0.97,0.9717,0.975,0.9766,0.978,0.9795,0.983,0.9863,0.9907,0.996,0.999,1.003,1.009,1.014,1.017,1.0205,1.032,1.038,1.037,1.04,1.052,1.0625,1.0625,1.061,1.071,1.085,1.128,1.232,1.427,1.782,2.271,2.645,2.78,2.828,2.838,2.816,2.81,2.785,2.744,2.705,2.666,2.643,2.62,2.598,2.574,2.564,2.562,2.562,2.568,2.572,2.572,2.568,2.566,2.56,2.555,2.549,2.545,2.537,2.533,2.531,2.525,2.523,2.521,2.525,2.523,2.518,2.512,2.508,2.506,2.508,2.502,2.504,2.504,2.498,2.502,2.506,2.51,2.502,2.496,2.48,2.459,2.438,2.422,2.41,2.402,2.4,2.396,2.39,2.387,2.387,2.387,2.393,2.395,2.398,2.398,2.398,2.398,2.396,2.393,2.393,2.389,2.385,2.38,2.379,2.379,2.379,2.383,2.39,2.395,2.396,2.398,2.398,2.398,2.402,2.414,2.418,2.42,2.422,2.42,2.416,2.41,2.402,2.4,2.4,2.4,2.395,2.395,2.396,2.395,2.395,2.395,2.4,2.406,2.41,2.412,2.41,2.408,2.406,2.404,2.4,2.398,2.398,2.4,2.4,2.398,2.396,2.39,2.387,2.387,2.383,2.38,2.38,2.38,2.38,2.38,2.38,2.38,2.379,2.38,2.38,2.38,2.38,2.38,2.379,2.377,2.375,2.375,2.375,2.375,2.375,2.375,2.373,2.375,2.38,2.387,2.387,2.389,2.395,2.4,2.406,2.41,2.422,2.424,2.43,2.43,2.428,2.426,2.424,2.422,2.422,2.422,2.422,2.42,2.418,2.416,2.416,2.416,2.41,2.402,2.398,2.393,2.389,2.38,2.379,2.379,2.383,2.38,2.38,2.38,2.383,2.383,2.383,2.383,2.389,2.393,2.396,2.402,2.402,2.406,2.414,2.42,2.426,2.434,2.438,2.441,2.447,2.455,2.46,2.463,2.463,2.463,2.467,2.467,2.47,2.475,2.48,2.486,2.494,2.496,2.506,2.51,2.518,2.52,2.523,2.531,2.537,2.545,2.547,2.55,2.555,2.56,2.562,2.564,2.568,2.572,2.578,2.58,2.582,2.582,2.586,2.588,2.594,2.6,2.604,2.61,2.615,2.62,2.627,2.635,2.637,2.635,2.63,2.629,2.621,2.611,2.61,2.605,2.604,2.598,2.592,2.59,2.588,2.586,2.584,2.582,2.578,2.58,2.584,2.58,2.582,2.584,2.584,2.578,2.572,2.576,2.576,2.578,2.582,2.59,2.59,2.59,2.592,2.592,2.592,2.592,2.602,2.605,2.605,2.605,2.605,2.605,2.605,2.605,2.605,2.598,2.596,2.596,2.594,2.59,2.59,2.596,2.605,2.605,2.605,2.605,2.61,2.611,2.611,2.617,2.62,2.611,2.61,2.613,2.617,2.62,2.621,2.627,2.633,2.635,2.639,2.639,2.64,2.645,2.646,2.637,2.617,2.596,2.586,2.578,2.559,2.55,2.547,2.55,2.555,2.574,2.604,2.625,2.643,2.639,2.629,2.625,2.633,2.629,2.621,2.613,2.605,2.602,2.598,2.598,2.596,2.6,2.578
0.788,0.7856,0.785,0.7856,0.782,0.7803,0.781,0.782,0.7817,0.7817,0.781,0.7812,0.782,0.784,0.7847,0.785,0.787,0.789,0.7905,0.792,0.793,0.7944,0.7964,0.799,0.801,0.802,0.8027,0.8047,0.8066,0.809,0.812,0.8125,0.8135,0.8154,0.818,0.82,0.8213,0.824,0.8276,0.83,0.8325,0.8345,0.836,0.8384,0.841,0.843,0.845,0.8477,0.85,0.853,0.855,0.857,0.8594,0.861,0.863,0.865,0.868,0.8696,0.8716,0.8735,0.874,0.8765,0.8774,0.8794,0.881,0.883,0.884,0.885,0.8857,0.8867,0.8877,0.889,0.8906,0.892,0.893,0.8945,0.895,0.8965,0.899,0.9004,0.903,0.904,0.905,0.907,0.907,0.9077,0.9087,0.909,0.9116,0.912,0.9136,0.9136,0.915,0.915,0.916,0.916,0.917,0.9175,0.9194,0.9194,0.92,0.92,0.921,0.9233,0.9253,0.9277,0.9287,0.931,0.9336,0.9346,0.9365,0.938,0.9404,0.9424,0.945,0.947,0.95,0.9526,0.955,0.958,0.96,0.962,0.964,0.966,0.9688,0.9697,0.9717,0.9736,0.9756,0.9775,0.9805,0.983,0.986,0.9907,0.9946,0.999,1.003,1.008,1.013,1.016,1.022,1.031,1.037,1.039,1.042,1.052,1.06,1.061,1.059,1.068,1.081,1.117,1.211,1.381,1.726,2.217,2.607,2.75,2.797,2.812,2.797,2.79,2.762,2.719,2.676,2.643,2.623,2.602,2.576,2.566,2.562,2.56,2.56,2.56,2.562,2.557,2.55,2.555,2.55,2.547,2.54,2.535,2.531,2.525,2.52,2.518,2.514,2.512,2.508,2.51,2.504,2.498,2.498,2.498,2.492,2.498,2.5,2.492,2.486,2.482,2.484,2.49,2.492,2.48,2.473,2.457,2.438,2.42,2.41,2.402,2.398,2.395,2.39,2.389,2.387,2.39,2.393,2.393,2.395,2.395,2.396,2.395,2.393,2.389,2.387,2.385,2.38,2.379,2.377,2.375,2.375,2.383,2.385,2.39,2.393,2.395,2.395,2.395,2.402,2.408,2.412,2.416,2.416,2.416,2.416,2.41,2.402,2.4,2.398,2.398,2.396,2.395,2.396,2.398,2.398,2.398,2.402,2.404,2.41,2.404,2.402,2.4,2.4,2.4,2.4,2.4,2.4,2.4,2.4,2.4,2.396,2.393,2.39,2.387,2.385,2.385,2.385,2.38,2.38,2.38,2.38,2.379,2.375,2.375,2.371,2.373,2.373,2.373,2.371,2.371,2.367,2.367,2.37,2.365,2.367,2.365,2.37,2.371,2.375,2.379,2.379,2.38,2.385,2.387,2.39,2.39,2.395,2.396,2.39,2.39,2.39,2.387,2.387,2.387,2.385,2.383,2.383,2.383,2.383,2.383,2.383,2.383,2.383,2.375,2.37,2.37,2.365,2.36,2.357,2.36,2.363,2.363,2.363,2.363,2.363,2.365,2.365,2.37,2.371,2.375,2.379,2.383,2.387,2.393,2.396,2.404,2.408,2.416,2.42,2.426,2.432,2.441,2.45,2.453,2.453,2.455,2.459,2.459,2.463,2.467,2.47,2.479,2.486,2.49,2.498,2.506,2.51,2.516,2.52,2.53,2.533,2.54,2.545,2.547,2.555,2.559,2.562,2.562,2.564,2.568,2.576,2.578,2.58,2.58,2.58,2.584,2.588,2.594,2.602,2.607,2.611,2.62,2.625,2.63,2.637,2.637,2.635,2.635,2.627,2.621,2.615,2.611,2.611,2.604,2.602,2.598,2.594,2.592,2.59,2.59,2.588,2.59,2.59,2.59,2.59,2.59,2.59,2.584,2.58,2.58,2.58,2.584,2.586,2.59,2.59,2.592,2.592,2.594,2.594,2.598,2.602,2.605,2.605,2.605,2.605,2.605,2.605,2.602,2.6,2.592,2.59,2.59,2.59,2.586,2.586,2.592,2.602,2.602,2.602,2.604,2.607,2.61,2.611,2.615,2.62,2.611,2.61,2.613,2.62,2.62,2.623,2.629,2.637,2.639,2.639,2.64,2.645,2.648,2.648,2.639,2.621,2.6,2.592,2.58,2.564,2.553,2.553,2.555,2.559,2.58,2.607,2.623,2.645,2.643,2.637,2.633,2.637,2.63,2.623,2.615,2.61,2.605,2.602,2.602,2.6,2.604,2.582
0.7886,0.7856,0.7856,0.785,0.7827,0.781,0.7812,0.783,0.783,0.782,0.7817,0.7817,0.7827,0.784,0.7847,0.786,0.7876,0.79,0.7915,0.793,0.7944,0.7954,0.7974,0.7993,0.8013,0.8022,0.8037,0.8057,0.8076,0.81,0.8125,0.814,0.8145,0.8164,0.819,0.821,0.8223,0.8257,0.8286,0.8315,0.8335,0.8354,0.8374,0.8394,0.842,0.844,0.8467,0.8496,0.8516,0.8545,0.856,0.858,0.861,0.863,0.8643,0.867,0.8687,0.8706,0.8726,0.8745,0.876,0.8774,0.88,0.881,0.882,0.884,0.8853,0.8857,0.887,0.8877,0.8887,0.8896,0.8916,0.8926,0.8945,0.895,0.8965,0.8975,0.8994,0.901,0.903,0.9043,0.9053,0.907,0.9077,0.9077,0.9087,0.909,0.9116,0.912,0.913,0.9136,0.914,0.915,0.9155,0.916,0.916,0.9175,0.9185,0.92,0.9194,0.92,0.9204,0.923,0.9253,0.9263,0.9287,0.931,0.9326,0.9346,0.9355,0.9375,0.9404,0.942,0.9443,0.947,0.9497,0.952,0.954,0.9575,0.9595,0.9614,0.963,0.966,0.968,0.969,0.971,0.9736,0.9756,0.9766,0.979,0.9824,0.985,0.9893,0.9937,0.998,1.003,1.008,1.012,1.016,1.0205,1.031,1.037,1.037,1.045,1.051,1.058,1.06,1.059,1.066,1.076,1.108,1.196,1.346,1.673,2.168,2.576,2.727,2.773,2.79,2.78,2.775,2.746,2.705,2.664,2.63,2.613,2.592,2.576,2.566,2.56,2.557,2.553,2.55,2.549,2.55,2.55,2.549,2.545,2.543,2.54,2.535,2.531,2.525,2.518,2.514,2.51,2.504,2.502,2.5,2.496,2.488,2.486,2.484,2.482,2.48,2.488,2.484,2.475,2.473,2.469,2.473,2.477,2.47,2.467,2.453,2.436,2.418,2.406,2.402,2.396,2.393,2.389,2.387,2.39,2.39,2.393,2.393,2.395,2.395,2.393,2.39,2.387,2.385,2.383,2.379,2.373,2.373,2.371,2.373,2.373,2.377,2.385,2.385,2.39,2.393,2.395,2.395,2.4,2.406,2.412,2.412,2.41,2.414,2.412,2.41,2.404,2.406,2.4,2.4,2.396,2.395,2.4,2.398,2.398,2.398,2.398,2.402,2.406,2.402,2.4,2.4,2.398,2.396,2.393,2.395,2.398,2.398,2.398,2.398,2.393,2.39,2.387,2.385,2.379,2.379,2.377,2.377,2.377,2.375,2.373,2.371,2.37,2.365,2.365,2.363,2.365,2.363,2.361,2.357,2.357,2.357,2.357,2.355,2.357,2.36,2.357,2.361,2.365,2.37,2.371,2.373,2.377,2.377,2.377,2.377,2.375,2.375,2.37,2.367,2.367,2.365,2.363,2.36,2.36,2.36,2.357,2.355,2.354,2.352,2.352,2.354,2.352,2.35,2.348,2.344,2.342,2.34,2.34,2.34,2.346,2.346,2.348,2.348,2.352,2.354,2.355,2.355,2.36,2.363,2.37,2.375,2.379,2.385,2.39,2.396,2.4,2.406,2.414,2.418,2.426,2.434,2.441,2.443,2.447,2.447,2.451,2.453,2.457,2.463,2.465,2.473,2.48,2.49,2.496,2.506,2.512,2.516,2.52,2.53,2.533,2.54,2.545,2.547,2.553,2.559,2.562,2.564,2.57,2.572,2.576,2.578,2.58,2.58,2.58,2.582,2.59,2.592,2.6,2.605,2.611,2.62,2.627,2.63,2.637,2.637,2.637,2.637,2.627,2.621,2.62,2.617,2.613,2.607,2.602,2.6,2.596,2.594,2.594,2.592,2.59,2.592,2.592,2.59,2.592,2.592,2.592,2.586,2.58,2.58,2.582,2.582,2.586,2.588,2.584,2.588,2.588,2.588,2.59,2.592,2.6,2.6,2.6,2.6,2.6,2.598,2.596,2.594,2.59,2.586,2.582,2.582,2.584,2.582,2.582,2.592,2.598,2.602,2.6,2.602,2.604,2.605,2.611,2.613,2.615,2.611,2.61,2.615,2.617,2.621,2.623,2.633,2.639,2.643,2.643,2.643,2.646,2.65,2.652,2.64,2.625,2.605,2.592,2.586,2.57,2.56,2.559,2.559,2.56,2.582,2.61,2.627,2.645,2.645,2.639,2.635,2.637,2.633,2.627,2.621,2.611,2.607,2.605,2.605,2.602,2.607,2.582
0.7886,0.7856,0.7856,0.785,0.7827,0.781,0.7817,0.783,0.783,0.782,0.7817,0.7817,0.783,0.784,0.7847,0.786,0.788,0.79,0.7915,0.7925,0.794,0.7954,0.7974,0.7993,0.8013,0.8022,0.8037,0.805,0.808,0.81,0.8125,0.8135,0.8145,0.8164,0.8193,0.821,0.8228,0.8257,0.829,0.831,0.8335,0.8354,0.8374,0.8394,0.842,0.844,0.8467,0.849,0.8516,0.854,0.856,0.8584,0.8604,0.8623,0.8643,0.866,0.8687,0.8706,0.8726,0.8735,0.8755,0.877,0.879,0.8804,0.882,0.883,0.885,0.8853,0.886,0.8877,0.888,0.889,0.891,0.892,0.8936,0.8945,0.8955,0.897,0.899,0.9014,0.903,0.904,0.9053,0.9067,0.9077,0.9077,0.9077,0.9097,0.911,0.9116,0.9116,0.9136,0.9136,0.914,0.915,0.916,0.916,0.9175,0.9185,0.9194,0.9194,0.92,0.9204,0.923,0.9243,0.927,0.9287,0.931,0.9326,0.9346,0.9355,0.937,0.9395,0.942,0.944,0.947,0.9497,0.9517,0.9536,0.957,0.9595,0.9614,0.963,0.966,0.967,0.969,0.971,0.973,0.975,0.9766,0.9795,0.982,0.9844,0.989,0.994,0.9976,1.003,1.007,1.011,1.015,1.0205,1.03,1.036,1.036,1.044,1.049,1.056,1.058,1.058,1.063,1.071,1.1,1.184,1.323,1.632,2.129,2.547,2.707,2.752,2.766,2.762,2.76,2.734,2.693,2.656,2.625,2.61,2.592,2.576,2.564,2.559,2.553,2.549,2.547,2.549,2.549,2.55,2.549,2.543,2.535,2.531,2.53,2.523,2.518,2.516,2.51,2.504,2.5,2.496,2.494,2.49,2.482,2.48,2.479,2.475,2.47,2.473,2.479,2.473,2.469,2.467,2.46,2.467,2.463,2.46,2.45,2.434,2.416,2.402,2.398,2.395,2.39,2.387,2.387,2.389,2.389,2.389,2.393,2.393,2.393,2.389,2.387,2.383,2.379,2.379,2.375,2.371,2.371,2.371,2.371,2.373,2.375,2.38,2.385,2.389,2.393,2.395,2.398,2.4,2.404,2.408,2.408,2.406,2.408,2.41,2.406,2.402,2.402,2.4,2.398,2.395,2.395,2.396,2.395,2.396,2.395,2.396,2.4,2.402,2.402,2.4,2.396,2.395,2.393,2.39,2.389,2.389,2.389,2.389,2.387,2.385,2.383,2.383,2.377,2.373,2.367,2.365,2.365,2.363,2.361,2.36,2.357,2.355,2.357,2.357,2.357,2.357,2.357,2.357,2.352,2.35,2.35,2.35,2.348,2.346,2.346,2.344,2.346,2.348,2.352,2.354,2.355,2.357,2.357,2.357,2.355,2.354,2.354,2.348,2.348,2.346,2.344,2.34,2.334,2.332,2.332,2.33,2.33,2.326,2.328,2.328,2.33,2.328,2.326,2.326,2.326,2.324,2.324,2.326,2.326,2.334,2.334,2.338,2.34,2.344,2.346,2.348,2.354,2.355,2.361,2.365,2.373,2.375,2.38,2.387,2.393,2.396,2.4,2.406,2.414,2.418,2.428,2.436,2.44,2.441,2.441,2.445,2.45,2.453,2.459,2.463,2.47,2.479,2.488,2.498,2.508,2.514,2.516,2.52,2.53,2.533,2.54,2.545,2.547,2.555,2.56,2.562,2.568,2.572,2.574,2.576,2.582,2.58,2.58,2.58,2.584,2.588,2.596,2.6,2.607,2.611,2.62,2.625,2.63,2.637,2.637,2.637,2.637,2.627,2.623,2.621,2.615,2.615,2.607,2.602,2.6,2.596,2.594,2.594,2.592,2.59,2.59,2.596,2.592,2.594,2.596,2.594,2.588,2.584,2.584,2.584,2.584,2.588,2.588,2.588,2.588,2.588,2.588,2.59,2.59,2.6,2.602,2.6,2.598,2.598,2.596,2.594,2.59,2.588,2.586,2.584,2.584,2.584,2.584,2.584,2.592,2.602,2.602,2.602,2.604,2.605,2.605,2.611,2.615,2.617,2.611,2.61,2.615,2.62,2.623,2.625,2.635,2.64,2.645,2.643,2.645,2.646,2.65,2.652,2.643,2.629,2.611,2.6,2.59,2.576,2.566,2.564,2.562,2.564,2.586,2.607,2.625,2.645,2.645,2.64,2.635,2.637,2.633,2.627,2.621,2.611,2.61,2.605,2.605,2.602,2.61,2.582
0.7876,0.7847,0.7847,0.7847,0.781,0.78,0.7803,0.7817,0.7817,0.7803,0.7803,0.7803,0.7817,0.783,0.7837,0.7847,0.786,0.7886,0.7896,0.7905,0.7925,0.7935,0.795,0.7974,0.799,0.8,0.8013,0.803,0.8057,0.808,0.81,0.811,0.8125,0.814,0.817,0.819,0.821,0.8237,0.8267,0.829,0.831,0.833,0.8354,0.8374,0.84,0.8423,0.844,0.847,0.8496,0.8516,0.8535,0.8555,0.858,0.8594,0.8613,0.8633,0.865,0.867,0.869,0.8706,0.872,0.8735,0.8755,0.877,0.879,0.88,0.881,0.883,0.8833,0.885,0.8857,0.8867,0.888,0.89,0.891,0.892,0.8936,0.8955,0.898,0.9,0.902,0.903,0.9033,0.9053,0.906,0.9067,0.9077,0.9077,0.9097,0.9106,0.9116,0.913,0.9136,0.914,0.915,0.9155,0.916,0.9175,0.9185,0.9194,0.92,0.92,0.921,0.9233,0.9253,0.927,0.929,0.931,0.9326,0.9346,0.936,0.938,0.9404,0.9424,0.945,0.947,0.9497,0.9526,0.9546,0.958,0.96,0.962,0.964,0.9663,0.9683,0.969,0.9717,0.9736,0.9756,0.9766,0.9795,0.982,0.985,0.9893,0.993,0.9976,1.003,1.007,1.011,1.015,1.022,1.029,1.035,1.035,1.043,1.049,1.054,1.059,1.058,1.063,1.068,1.094,1.173,1.303,1.595,2.094,2.516,2.682,2.725,2.738,2.734,2.736,2.715,2.676,2.639,2.61,2.602,2.586,2.572,2.562,2.555,2.549,2.545,2.547,2.55,2.55,2.553,2.555,2.549,2.541,2.535,2.533,2.527,2.52,2.512,2.504,2.496,2.492,2.486,2.484,2.479,2.477,2.477,2.477,2.473,2.467,2.465,2.47,2.47,2.47,2.469,2.465,2.467,2.465,2.463,2.447,2.432,2.416,2.4,2.393,2.389,2.383,2.379,2.379,2.38,2.38,2.38,2.38,2.385,2.385,2.38,2.38,2.377,2.375,2.375,2.373,2.371,2.371,2.367,2.367,2.367,2.37,2.373,2.375,2.38,2.387,2.39,2.395,2.395,2.398,2.402,2.402,2.4,2.398,2.4,2.398,2.395,2.395,2.393,2.393,2.389,2.387,2.387,2.387,2.387,2.387,2.389,2.393,2.398,2.398,2.396,2.393,2.393,2.389,2.387,2.385,2.385,2.38,2.38,2.375,2.373,2.37,2.367,2.363,2.36,2.357,2.357,2.354,2.354,2.35,2.346,2.344,2.34,2.34,2.338,2.34,2.342,2.342,2.34,2.336,2.332,2.332,2.332,2.332,2.332,2.332,2.332,2.332,2.332,2.332,2.332,2.332,2.332,2.332,2.332,2.328,2.326,2.326,2.318,2.314,2.312,2.31,2.307,2.3,2.297,2.297,2.297,2.297,2.297,2.3,2.303,2.307,2.307,2.309,2.31,2.31,2.31,2.31,2.314,2.316,2.324,2.326,2.328,2.332,2.334,2.34,2.344,2.348,2.355,2.36,2.365,2.373,2.377,2.383,2.387,2.39,2.393,2.4,2.404,2.408,2.414,2.42,2.432,2.434,2.438,2.441,2.445,2.451,2.459,2.46,2.469,2.477,2.486,2.49,2.502,2.512,2.516,2.52,2.523,2.53,2.533,2.537,2.543,2.547,2.553,2.557,2.56,2.564,2.568,2.572,2.576,2.576,2.578,2.58,2.58,2.586,2.59,2.598,2.604,2.607,2.615,2.62,2.625,2.633,2.637,2.637,2.637,2.635,2.627,2.623,2.621,2.615,2.615,2.607,2.602,2.598,2.596,2.592,2.594,2.594,2.59,2.594,2.6,2.594,2.598,2.602,2.602,2.594,2.59,2.59,2.59,2.59,2.592,2.592,2.59,2.59,2.59,2.59,2.592,2.594,2.602,2.602,2.602,2.602,2.602,2.6,2.596,2.596,2.592,2.59,2.59,2.59,2.59,2.59,2.59,2.594,2.602,2.602,2.602,2.602,2.604,2.605,2.61,2.613,2.615,2.611,2.61,2.615,2.62,2.623,2.627,2.637,2.645,2.646,2.645,2.646,2.646,2.654,2.654,2.646,2.633,2.617,2.605,2.596,2.58,2.57,2.57,2.568,2.572,2.586,2.611,2.623,2.646,2.645,2.639,2.633,2.637,2.633,2.627,2.62,2.611,2.605,2.604,2.605,2.602,2.605,2.582
0.787,0.7847,0.784,0.7847,0.781,0.7793,0.7803,0.7817,0.7812,0.7803,0.78,0.78,0.7803,0.782,0.783,0.784,0.786,0.787,0.789,0.79,0.792,0.7935,0.795,0.7964,0.799,0.7993,0.8013,0.8022,0.804,0.807,0.809,0.8105,0.811,0.8135,0.816,0.818,0.82,0.8223,0.826,0.8286,0.8306,0.833,0.835,0.837,0.8394,0.842,0.8438,0.8457,0.8486,0.851,0.853,0.8555,0.8574,0.8584,0.86,0.862,0.864,0.865,0.867,0.8687,0.87,0.8716,0.8735,0.8755,0.8765,0.8784,0.88,0.881,0.8823,0.8833,0.8843,0.8853,0.8877,0.8896,0.8906,0.8916,0.8936,0.895,0.897,0.8984,0.9004,0.902,0.9033,0.9053,0.9053,0.9062,0.907,0.9077,0.9097,0.9106,0.9116,0.9116,0.9136,0.9136,0.915,0.916,0.916,0.917,0.9194,0.9194,0.92,0.92,0.9214,0.9233,0.9253,0.927,0.929,0.931,0.9336,0.9346,0.9365,0.938,0.9404,0.9424,0.945,0.947,0.9497,0.9526,0.9546,0.958,0.96,0.963,0.9644,0.9663,0.9683,0.969,0.9717,0.9736,0.9756,0.9766,0.979,0.982,0.9844,0.988,0.992,0.996,1.003,1.007,1.01,1.015,1.022,1.029,1.033,1.035,1.042,1.049,1.053,1.059,1.058,1.062,1.063,1.087,1.161,1.282,1.555,2.055,2.479,2.656,2.701,2.715,2.71,2.715,2.701,2.664,2.623,2.594,2.594,2.586,2.574,2.566,2.56,2.553,2.547,2.55,2.555,2.56,2.56,2.56,2.555,2.549,2.545,2.537,2.533,2.523,2.514,2.506,2.502,2.502,2.5,2.496,2.488,2.479,2.48,2.479,2.473,2.467,2.467,2.46,2.465,2.463,2.465,2.465,2.467,2.467,2.46,2.445,2.432,2.412,2.395,2.39,2.385,2.379,2.375,2.375,2.377,2.379,2.379,2.379,2.379,2.379,2.377,2.375,2.373,2.373,2.373,2.371,2.367,2.367,2.365,2.365,2.361,2.365,2.37,2.373,2.375,2.379,2.383,2.387,2.387,2.393,2.395,2.395,2.393,2.393,2.395,2.393,2.393,2.393,2.393,2.393,2.39,2.387,2.387,2.387,2.387,2.387,2.389,2.395,2.398,2.398,2.396,2.395,2.393,2.389,2.385,2.385,2.383,2.38,2.379,2.373,2.37,2.365,2.361,2.36,2.355,2.354,2.352,2.35,2.346,2.346,2.342,2.338,2.336,2.332,2.332,2.328,2.328,2.328,2.326,2.324,2.324,2.322,2.322,2.32,2.32,2.32,2.32,2.318,2.318,2.318,2.316,2.314,2.312,2.309,2.307,2.303,2.299,2.291,2.285,2.277,2.273,2.27,2.264,2.264,2.264,2.268,2.268,2.268,2.27,2.271,2.275,2.28,2.285,2.287,2.29,2.293,2.297,2.297,2.3,2.307,2.31,2.314,2.318,2.322,2.328,2.334,2.338,2.346,2.354,2.36,2.365,2.373,2.377,2.383,2.387,2.39,2.393,2.396,2.4,2.406,2.414,2.418,2.428,2.43,2.436,2.438,2.445,2.451,2.459,2.463,2.47,2.477,2.486,2.494,2.502,2.514,2.516,2.52,2.525,2.53,2.533,2.535,2.545,2.545,2.549,2.55,2.56,2.564,2.568,2.572,2.576,2.578,2.58,2.58,2.586,2.588,2.594,2.6,2.604,2.61,2.615,2.621,2.629,2.635,2.639,2.639,2.639,2.639,2.633,2.625,2.621,2.62,2.615,2.61,2.604,2.602,2.598,2.596,2.598,2.596,2.596,2.6,2.602,2.6,2.602,2.602,2.602,2.598,2.59,2.59,2.59,2.59,2.592,2.594,2.59,2.59,2.59,2.59,2.592,2.594,2.602,2.602,2.602,2.602,2.602,2.602,2.6,2.596,2.594,2.59,2.59,2.59,2.592,2.59,2.59,2.598,2.602,2.602,2.602,2.604,2.605,2.605,2.61,2.613,2.617,2.611,2.613,2.62,2.623,2.627,2.633,2.639,2.648,2.65,2.646,2.646,2.648,2.652,2.656,2.648,2.635,2.621,2.611,2.6,2.586,2.578,2.572,2.572,2.576,2.59,2.611,2.623,2.643,2.643,2.639,2.635,2.637,2.635,2.627,2.621,2.613,2.605,2.605,2.605,2.602,2.605,2.582
0.787,0.784,0.784,0.784,0.781,0.7793,0.78,0.7812,0.7812,0.7803,0.78,0.78,0.7812,0.782,0.783,0.784,0.7856,0.787,0.789,0.79,0.791,0.7925,0.7944,0.796,0.7983,0.7993,0.801,0.8022,0.804,0.807,0.8086,0.81,0.811,0.8135,0.815,0.818,0.82,0.8223,0.8257,0.8286,0.83,0.8325,0.835,0.8364,0.8394,0.8413,0.8433,0.8457,0.848,0.8506,0.8525,0.8545,0.857,0.8574,0.8594,0.8613,0.8633,0.8643,0.8657,0.868,0.869,0.8716,0.872,0.875,0.8765,0.878,0.879,0.8804,0.8813,0.883,0.8833,0.885,0.8867,0.888,0.89,0.8916,0.892,0.894,0.897,0.899,0.9004,0.902,0.9023,0.905,0.9053,0.906,0.907,0.9077,0.9087,0.91,0.911,0.9116,0.913,0.9136,0.915,0.915,0.916,0.917,0.9194,0.9194,0.92,0.92,0.9204,0.9233,0.9253,0.9272,0.929,0.931,0.933,0.9346,0.936,0.937,0.9395,0.942,0.9443,0.947,0.9497,0.952,0.9546,0.958,0.96,0.9624,0.964,0.9663,0.9683,0.969,0.9717,0.973,0.975,0.9766,0.978,0.9814,0.984,0.988,0.9917,0.9966,1.002,1.006,1.01,1.014,1.0205,1.028,1.032,1.033,1.042,1.049,1.051,1.059,1.058,1.06,1.062,1.082,1.15,1.263,1.517,2.014,2.441,2.629,2.684,2.695,2.69,2.7,2.693,2.658,2.62,2.598,2.598,2.59,2.58,2.57,2.562,2.559,2.555,2.555,2.562,2.564,2.564,2.562,2.56,2.557,2.55,2.547,2.537,2.531,2.52,2.518,2.516,2.506,2.504,2.5,2.494,2.488,2.488,2.484,2.477,2.469,2.467,2.465,2.46,2.459,2.459,2.463,2.467,2.465,2.46,2.447,2.434,2.416,2.4,2.393,2.389,2.38,2.375,2.375,2.377,2.377,2.377,2.373,2.373,2.373,2.375,2.373,2.373,2.373,2.373,2.367,2.367,2.365,2.361,2.361,2.361,2.363,2.365,2.37,2.373,2.375,2.379,2.383,2.385,2.389,2.389,2.389,2.389,2.389,2.393,2.39,2.39,2.393,2.393,2.393,2.39,2.39,2.389,2.39,2.389,2.389,2.389,2.395,2.396,2.398,2.395,2.395,2.393,2.389,2.385,2.383,2.38,2.379,2.375,2.371,2.365,2.361,2.36,2.357,2.352,2.35,2.348,2.346,2.346,2.34,2.338,2.332,2.332,2.33,2.328,2.324,2.322,2.322,2.318,2.316,2.316,2.312,2.312,2.309,2.309,2.309,2.305,2.303,2.303,2.299,2.297,2.293,2.291,2.287,2.28,2.271,2.262,2.256,2.248,2.242,2.24,2.24,2.24,2.24,2.242,2.244,2.246,2.25,2.252,2.256,2.262,2.266,2.27,2.275,2.277,2.283,2.287,2.291,2.293,2.299,2.307,2.309,2.312,2.32,2.324,2.332,2.336,2.344,2.35,2.357,2.363,2.371,2.373,2.377,2.385,2.387,2.389,2.395,2.398,2.408,2.41,2.418,2.428,2.43,2.438,2.44,2.445,2.451,2.459,2.467,2.469,2.477,2.486,2.494,2.504,2.514,2.516,2.52,2.527,2.531,2.535,2.535,2.543,2.547,2.549,2.553,2.559,2.564,2.568,2.572,2.576,2.58,2.58,2.584,2.588,2.59,2.596,2.602,2.604,2.61,2.617,2.621,2.629,2.637,2.639,2.643,2.643,2.643,2.637,2.629,2.625,2.623,2.62,2.613,2.61,2.604,2.602,2.602,2.602,2.602,2.6,2.602,2.602,2.602,2.602,2.605,2.602,2.598,2.592,2.59,2.59,2.59,2.592,2.59,2.59,2.588,2.588,2.588,2.59,2.592,2.598,2.6,2.6,2.6,2.598,2.598,2.594,2.594,2.59,2.588,2.588,2.588,2.588,2.588,2.588,2.596,2.602,2.602,2.602,2.604,2.605,2.607,2.61,2.615,2.617,2.611,2.613,2.621,2.623,2.63,2.635,2.64,2.65,2.65,2.648,2.648,2.648,2.654,2.654,2.648,2.637,2.625,2.615,2.602,2.588,2.582,2.578,2.572,2.576,2.59,2.611,2.621,2.64,2.643,2.637,2.635,2.637,2.637,2.629,2.623,2.615,2.61,2.605,2.605,2.605,2.604,2.58
0.787,0.7837,0.784,0.784,0.781,0.779,0.78,0.7817,0.7812,0.7803,0.7803,0.78,0.7812,0.782,0.7827,0.7837,0.785,0.787,0.789,0.7896,0.7905,0.7925,0.794,0.796,0.798,0.799,0.8003,0.802,0.804,0.8066,0.8086,0.81,0.811,0.8125,0.815,0.8174,0.8193,0.8223,0.8257,0.8286,0.8306,0.8315,0.8345,0.8354,0.8384,0.8403,0.8423,0.8447,0.8477,0.8496,0.851,0.8535,0.855,0.857,0.8574,0.8604,0.8623,0.8633,0.8647,0.867,0.8687,0.87,0.872,0.874,0.876,0.877,0.8784,0.88,0.8804,0.8823,0.883,0.8843,0.8857,0.8877,0.889,0.8906,0.892,0.8936,0.8955,0.8975,0.8994,0.9014,0.9023,0.9043,0.9053,0.9053,0.9062,0.9077,0.909,0.909,0.911,0.9116,0.9126,0.9136,0.9146,0.9155,0.916,0.917,0.919,0.9194,0.9194,0.92,0.9204,0.923,0.9243,0.9263,0.9287,0.931,0.9326,0.934,0.935,0.9365,0.94,0.942,0.9443,0.947,0.9497,0.9526,0.9546,0.958,0.9595,0.962,0.964,0.9663,0.9683,0.969,0.9717,0.973,0.9746,0.9756,0.977,0.9805,0.9834,0.9863,0.991,0.995,1.002,1.006,1.009,1.014,1.0205,1.029,1.03,1.032,1.041,1.047,1.049,1.058,1.058,1.059,1.06,1.078,1.144,1.247,1.483,1.975,2.412,2.613,2.676,2.691,2.69,2.693,2.697,2.664,2.627,2.605,2.605,2.598,2.584,2.572,2.566,2.559,2.555,2.559,2.562,2.564,2.566,2.56,2.56,2.555,2.547,2.545,2.535,2.525,2.516,2.512,2.506,2.502,2.5,2.494,2.486,2.482,2.48,2.477,2.467,2.46,2.459,2.453,2.453,2.453,2.455,2.459,2.463,2.459,2.457,2.443,2.428,2.412,2.396,2.387,2.38,2.377,2.371,2.371,2.373,2.373,2.373,2.373,2.373,2.373,2.373,2.371,2.37,2.37,2.37,2.367,2.363,2.361,2.36,2.36,2.36,2.361,2.365,2.367,2.371,2.373,2.375,2.377,2.377,2.385,2.385,2.385,2.387,2.387,2.389,2.39,2.39,2.396,2.398,2.398,2.398,2.396,2.396,2.396,2.396,2.393,2.393,2.396,2.396,2.398,2.396,2.395,2.393,2.389,2.387,2.383,2.38,2.377,2.373,2.37,2.363,2.36,2.357,2.354,2.352,2.348,2.346,2.346,2.344,2.34,2.336,2.33,2.33,2.326,2.324,2.322,2.322,2.318,2.31,2.309,2.307,2.303,2.3,2.295,2.295,2.29,2.285,2.283,2.277,2.273,2.268,2.26,2.254,2.246,2.24,2.236,2.229,2.227,2.223,2.219,2.219,2.219,2.22,2.223,2.225,2.23,2.234,2.234,2.238,2.244,2.252,2.256,2.26,2.268,2.271,2.275,2.281,2.285,2.291,2.297,2.305,2.31,2.316,2.32,2.328,2.334,2.338,2.346,2.352,2.357,2.363,2.367,2.373,2.379,2.385,2.387,2.389,2.395,2.4,2.408,2.412,2.418,2.428,2.432,2.436,2.44,2.445,2.45,2.455,2.463,2.469,2.477,2.484,2.492,2.5,2.508,2.516,2.52,2.521,2.531,2.531,2.533,2.54,2.545,2.547,2.55,2.557,2.562,2.568,2.574,2.58,2.582,2.584,2.588,2.59,2.592,2.6,2.602,2.607,2.611,2.62,2.625,2.63,2.637,2.639,2.64,2.64,2.64,2.635,2.627,2.621,2.621,2.62,2.611,2.607,2.604,2.6,2.6,2.6,2.598,2.594,2.596,2.6,2.596,2.598,2.598,2.598,2.59,2.586,2.586,2.586,2.586,2.59,2.59,2.584,2.584,2.586,2.586,2.586,2.586,2.592,2.592,2.592,2.592,2.59,2.59,2.588,2.584,2.582,2.582,2.58,2.582,2.584,2.584,2.588,2.596,2.602,2.604,2.604,2.607,2.611,2.613,2.613,2.62,2.623,2.621,2.62,2.625,2.629,2.633,2.637,2.64,2.65,2.65,2.648,2.65,2.65,2.652,2.658,2.65,2.64,2.629,2.62,2.607,2.594,2.586,2.582,2.578,2.58,2.592,2.611,2.623,2.637,2.639,2.637,2.633,2.637,2.635,2.629,2.625,2.617,2.607,2.605,2.607,2.604,2.6,2.578
0.7866,0.7837,0.7837,0.7837,0.7803,0.779,0.7793,0.7817,0.7803,0.7803,0.78,0.78,0.7803,0.7817,0.782,0.7837,0.7847,0.7866,0.788,0.789,0.79,0.7915,0.7935,0.7954,0.798,0.799,0.8,0.802,0.804,0.806,0.8086,0.81,0.81,0.8125,0.815,0.817,0.819,0.8213,0.825,0.827,0.8296,0.831,0.8335,0.8354,0.8374,0.8394,0.8423,0.844,0.8467,0.8486,0.85,0.852,0.854,0.855,0.857,0.858,0.86,0.8623,0.8643,0.865,0.867,0.8687,0.871,0.8726,0.8745,0.876,0.8774,0.879,0.88,0.8804,0.882,0.883,0.8843,0.886,0.8877,0.889,0.8906,0.8926,0.895,0.897,0.899,0.9004,0.901,0.903,0.9043,0.9053,0.9053,0.907,0.908,0.909,0.91,0.911,0.9116,0.913,0.914,0.915,0.9155,0.9175,0.919,0.9194,0.9194,0.9194,0.9204,0.923,0.924,0.926,0.928,0.9307,0.9326,0.9336,0.935,0.9365,0.939,0.942,0.944,0.947,0.9497,0.9526,0.9546,0.958,0.96,0.962,0.964,0.966,0.968,0.969,0.9717,0.973,0.974,0.9756,0.977,0.98,0.983,0.9863,0.991,0.995,1.001,1.006,1.009,1.014,1.02,1.029,1.029,1.031,1.039,1.045,1.048,1.057,1.057,1.058,1.058,1.073,1.135,1.23,1.451,1.933,2.377,2.596,2.67,2.688,2.693,2.684,2.695,2.67,2.635,2.61,2.605,2.594,2.58,2.566,2.559,2.549,2.55,2.553,2.559,2.562,2.566,2.564,2.559,2.55,2.547,2.54,2.531,2.521,2.518,2.51,2.502,2.494,2.49,2.488,2.479,2.473,2.473,2.469,2.46,2.453,2.45,2.447,2.443,2.447,2.45,2.453,2.455,2.455,2.45,2.436,2.422,2.406,2.389,2.379,2.373,2.367,2.361,2.361,2.365,2.365,2.365,2.365,2.365,2.365,2.365,2.365,2.365,2.365,2.363,2.36,2.36,2.36,2.36,2.36,2.357,2.36,2.361,2.365,2.37,2.371,2.373,2.373,2.377,2.38,2.38,2.38,2.383,2.385,2.387,2.389,2.39,2.398,2.4,2.404,2.404,2.404,2.402,2.4,2.4,2.398,2.398,2.398,2.4,2.4,2.398,2.395,2.393,2.39,2.389,2.385,2.38,2.377,2.373,2.367,2.363,2.36,2.357,2.354,2.35,2.348,2.346,2.346,2.342,2.338,2.336,2.332,2.33,2.322,2.32,2.316,2.309,2.309,2.307,2.303,2.3,2.297,2.293,2.285,2.273,2.266,2.26,2.252,2.24,2.229,2.217,2.21,2.209,2.205,2.203,2.203,2.2,2.2,2.195,2.197,2.197,2.2,2.201,2.207,2.209,2.213,2.219,2.223,2.229,2.232,2.24,2.246,2.254,2.26,2.266,2.271,2.275,2.283,2.29,2.295,2.305,2.31,2.318,2.324,2.33,2.334,2.342,2.346,2.354,2.36,2.365,2.371,2.375,2.38,2.385,2.387,2.389,2.395,2.398,2.402,2.408,2.416,2.422,2.428,2.432,2.436,2.44,2.447,2.455,2.46,2.467,2.47,2.479,2.488,2.496,2.506,2.512,2.516,2.518,2.525,2.53,2.533,2.541,2.545,2.549,2.553,2.557,2.564,2.568,2.574,2.58,2.58,2.584,2.59,2.59,2.594,2.6,2.605,2.61,2.613,2.62,2.623,2.627,2.633,2.637,2.639,2.639,2.639,2.63,2.623,2.621,2.617,2.615,2.61,2.605,2.602,2.6,2.6,2.6,2.598,2.594,2.596,2.6,2.596,2.596,2.596,2.596,2.588,2.584,2.586,2.584,2.586,2.59,2.59,2.586,2.588,2.59,2.586,2.586,2.586,2.59,2.592,2.59,2.59,2.59,2.59,2.586,2.584,2.582,2.58,2.582,2.582,2.586,2.588,2.59,2.598,2.605,2.61,2.611,2.615,2.62,2.62,2.62,2.623,2.627,2.623,2.623,2.627,2.633,2.637,2.637,2.643,2.65,2.65,2.648,2.648,2.65,2.654,2.654,2.648,2.64,2.63,2.62,2.607,2.596,2.588,2.582,2.58,2.582,2.594,2.61,2.623,2.637,2.639,2.635,2.629,2.633,2.633,2.625,2.625,2.615,2.607,2.605,2.605,2.6,2.6,2.578
0.786,0.7827,0.7827,0.7837,0.7803,0.7783,0.7793,0.7812,0.7803,0.78,0.7793,0.78,0.7803,0.7812,0.782,0.783,0.7847,0.786,0.787,0.789,0.79,0.7915,0.7935,0.795,0.797,0.798,0.7993,0.8013,0.8027,0.8057,0.8076,0.8096,0.81,0.8125,0.8145,0.8164,0.819,0.8213,0.8247,0.8267,0.829,0.831,0.833,0.8345,0.8364,0.8394,0.8403,0.843,0.845,0.8477,0.849,0.8506,0.853,0.8545,0.8555,0.8574,0.8594,0.861,0.8623,0.8647,0.866,0.868,0.869,0.872,0.873,0.8745,0.876,0.878,0.879,0.88,0.8804,0.8823,0.884,0.8857,0.8867,0.888,0.8896,0.8916,0.894,0.896,0.8984,0.8994,0.901,0.903,0.904,0.9043,0.905,0.907,0.908,0.909,0.91,0.911,0.911,0.912,0.9136,0.9146,0.9155,0.9165,0.9175,0.919,0.9194,0.9194,0.9204,0.9224,0.924,0.926,0.928,0.93,0.9326,0.9336,0.935,0.9365,0.9385,0.942,0.944,0.947,0.9497,0.9526,0.9546,0.958,0.9595,0.9614,0.963,0.9663,0.9683,0.969,0.9717,0.973,0.974,0.9756,0.977,0.98,0.983,0.985,0.9897,0.9937,1.0,1.006,1.008,1.013,1.02,1.027,1.028,1.03,1.037,1.044,1.046,1.056,1.056,1.057,1.056,1.071,1.128,1.214,1.412,1.884,2.334,2.57,2.65,2.676,2.688,2.684,2.684,2.668,2.64,2.613,2.604,2.592,2.576,2.562,2.553,2.549,2.55,2.555,2.56,2.56,2.566,2.57,2.562,2.559,2.547,2.54,2.533,2.527,2.521,2.518,2.51,2.5,2.498,2.49,2.48,2.473,2.473,2.473,2.46,2.457,2.453,2.451,2.447,2.447,2.453,2.453,2.453,2.451,2.447,2.436,2.424,2.406,2.387,2.377,2.367,2.361,2.357,2.36,2.36,2.36,2.361,2.361,2.361,2.361,2.361,2.361,2.361,2.361,2.36,2.36,2.357,2.357,2.357,2.357,2.357,2.355,2.357,2.357,2.361,2.365,2.37,2.373,2.373,2.377,2.379,2.379,2.379,2.38,2.385,2.387,2.389,2.393,2.4,2.404,2.404,2.406,2.406,2.404,2.404,2.4,2.4,2.4,2.4,2.4,2.4,2.398,2.398,2.395,2.393,2.387,2.385,2.379,2.373,2.371,2.363,2.36,2.357,2.354,2.35,2.348,2.346,2.344,2.342,2.338,2.33,2.326,2.32,2.316,2.312,2.312,2.31,2.307,2.303,2.299,2.291,2.285,2.271,2.256,2.242,2.23,2.215,2.2,2.19,2.186,2.18,2.178,2.176,2.174,2.172,2.172,2.172,2.172,2.178,2.18,2.184,2.186,2.188,2.193,2.195,2.203,2.207,2.213,2.219,2.229,2.234,2.24,2.246,2.254,2.26,2.266,2.273,2.28,2.285,2.291,2.3,2.309,2.314,2.322,2.328,2.334,2.338,2.346,2.352,2.357,2.36,2.367,2.373,2.379,2.385,2.385,2.389,2.39,2.398,2.4,2.408,2.412,2.422,2.424,2.43,2.432,2.44,2.447,2.455,2.46,2.465,2.47,2.479,2.488,2.496,2.502,2.51,2.514,2.518,2.525,2.53,2.533,2.541,2.545,2.549,2.553,2.557,2.564,2.568,2.574,2.58,2.58,2.584,2.59,2.592,2.598,2.602,2.607,2.611,2.615,2.62,2.623,2.629,2.633,2.637,2.639,2.639,2.639,2.635,2.625,2.621,2.62,2.62,2.613,2.61,2.602,2.602,2.602,2.602,2.6,2.598,2.6,2.602,2.6,2.6,2.602,2.598,2.594,2.588,2.586,2.586,2.586,2.59,2.59,2.588,2.59,2.59,2.586,2.586,2.586,2.592,2.592,2.592,2.592,2.592,2.592,2.588,2.588,2.586,2.584,2.584,2.586,2.59,2.592,2.596,2.605,2.611,2.613,2.615,2.621,2.625,2.623,2.623,2.627,2.63,2.623,2.623,2.627,2.635,2.637,2.64,2.645,2.65,2.65,2.646,2.646,2.648,2.65,2.652,2.646,2.639,2.629,2.617,2.607,2.596,2.59,2.58,2.58,2.584,2.594,2.61,2.623,2.637,2.637,2.633,2.625,2.629,2.629,2.623,2.623,2.615,2.607,2.605,2.602,2.6,2.604,2.576
0.786,0.7827,0.783,0.783,0.7803,0.7783,0.7793,0.7817,0.7803,0.7803,0.78,0.78,0.7803,0.7817,0.782,0.7827,0.7847,0.786,0.787,0.789,0.79,0.7915,0.7925,0.795,0.7964,0.798,0.799,0.8013,0.8027,0.8057,0.808,0.81,0.81,0.8125,0.8145,0.817,0.819,0.8213,0.8247,0.827,0.829,0.831,0.833,0.8354,0.8364,0.839,0.841,0.843,0.845,0.847,0.8486,0.8506,0.853,0.8535,0.855,0.857,0.859,0.8604,0.863,0.8647,0.8667,0.868,0.87,0.872,0.874,0.8755,0.8765,0.878,0.88,0.88,0.881,0.8823,0.8843,0.886,0.8877,0.8887,0.891,0.892,0.8945,0.8965,0.899,0.9004,0.9014,0.9033,0.9043,0.905,0.9053,0.907,0.908,0.909,0.91,0.911,0.9116,0.9126,0.9136,0.915,0.9155,0.9165,0.9175,0.919,0.9194,0.9194,0.9204,0.9214,0.924,0.925,0.9272,0.9297,0.931,0.9326,0.934,0.9355,0.938,0.9404,0.9434,0.9453,0.9487,0.9507,0.953,0.9556,0.9595,0.9604,0.9624,0.9653,0.967,0.968,0.97,0.9727,0.9736,0.974,0.976,0.9795,0.982,0.9854,0.9893,0.994,1.0,1.006,1.008,1.013,1.019,1.027,1.027,1.028,1.037,1.043,1.045,1.055,1.056,1.055,1.053,1.067,1.119,1.197,1.374,1.824,2.283,2.54,2.627,2.666,2.682,2.684,2.668,2.66,2.637,2.621,2.607,2.586,2.57,2.559,2.547,2.545,2.549,2.55,2.553,2.557,2.56,2.564,2.56,2.55,2.545,2.54,2.533,2.53,2.525,2.518,2.516,2.506,2.504,2.496,2.488,2.479,2.477,2.473,2.465,2.457,2.455,2.455,2.45,2.447,2.447,2.447,2.445,2.445,2.443,2.432,2.418,2.402,2.385,2.371,2.363,2.355,2.354,2.354,2.355,2.355,2.355,2.355,2.357,2.357,2.36,2.36,2.36,2.36,2.357,2.354,2.352,2.35,2.35,2.348,2.348,2.348,2.348,2.35,2.355,2.357,2.361,2.365,2.37,2.371,2.373,2.373,2.373,2.375,2.377,2.379,2.383,2.387,2.393,2.396,2.398,2.396,2.4,2.398,2.396,2.395,2.39,2.39,2.395,2.396,2.396,2.396,2.396,2.393,2.39,2.385,2.383,2.379,2.375,2.37,2.361,2.357,2.355,2.35,2.346,2.342,2.34,2.336,2.332,2.326,2.322,2.32,2.314,2.312,2.307,2.303,2.297,2.293,2.285,2.275,2.26,2.244,2.227,2.213,2.197,2.184,2.172,2.166,2.164,2.158,2.156,2.156,2.154,2.158,2.158,2.16,2.162,2.164,2.166,2.172,2.176,2.18,2.184,2.188,2.193,2.197,2.205,2.209,2.217,2.227,2.232,2.24,2.248,2.256,2.258,2.266,2.271,2.277,2.283,2.291,2.299,2.307,2.31,2.318,2.324,2.33,2.336,2.342,2.348,2.352,2.357,2.365,2.371,2.375,2.38,2.385,2.385,2.39,2.395,2.4,2.404,2.412,2.42,2.424,2.43,2.432,2.438,2.445,2.453,2.459,2.463,2.47,2.475,2.482,2.49,2.498,2.504,2.51,2.514,2.52,2.527,2.533,2.537,2.543,2.547,2.549,2.555,2.56,2.564,2.568,2.574,2.578,2.58,2.584,2.59,2.592,2.6,2.607,2.611,2.615,2.62,2.623,2.627,2.629,2.635,2.639,2.639,2.639,2.633,2.625,2.623,2.62,2.62,2.613,2.61,2.605,2.604,2.605,2.607,2.607,2.604,2.607,2.61,2.607,2.607,2.607,2.607,2.602,2.596,2.594,2.594,2.598,2.6,2.6,2.596,2.598,2.598,2.596,2.596,2.596,2.604,2.605,2.604,2.604,2.604,2.605,2.602,2.6,2.602,2.6,2.6,2.602,2.604,2.605,2.605,2.615,2.621,2.621,2.625,2.627,2.63,2.629,2.627,2.633,2.635,2.627,2.625,2.63,2.637,2.64,2.643,2.646,2.65,2.65,2.648,2.646,2.645,2.646,2.648,2.64,2.633,2.623,2.611,2.6,2.592,2.584,2.58,2.578,2.582,2.592,2.607,2.621,2.635,2.639,2.63,2.623,2.627,2.629,2.623,2.625,2.615,2.61,2.605,2.604,2.6,2.602,2.578
0.786,0.7827,0.783,0.783,0.7803,0.7783,0.7793,0.7812,0.7803,0.78,0.7793,0.78,0.7803,0.7817,0.782,0.7827,0.784,0.786,0.7876,0.7886,0.7896,0.791,0.7925,0.795,0.796,0.798,0.799,0.801,0.803,0.8057,0.808,0.8096,0.81,0.8125,0.8145,0.817,0.819,0.8213,0.8247,0.827,0.829,0.831,0.833,0.8345,0.8364,0.839,0.841,0.843,0.845,0.8467,0.848,0.85,0.8525,0.8535,0.855,0.8574,0.8584,0.8604,0.862,0.8647,0.8667,0.868,0.87,0.872,0.8745,0.876,0.8774,0.878,0.88,0.8804,0.8813,0.8823,0.8853,0.886,0.8877,0.889,0.891,0.8926,0.895,0.897,0.899,0.9004,0.9023,0.904,0.905,0.9053,0.9067,0.907,0.9087,0.9097,0.911,0.911,0.912,0.9136,0.9136,0.915,0.9155,0.9165,0.9175,0.919,0.9194,0.9194,0.92,0.921,0.923,0.9243,0.927,0.9287,0.931,0.9316,0.933,0.935,0.937,0.9395,0.9424,0.945,0.9478,0.95,0.953,0.955,0.958,0.96,0.962,0.964,0.9663,0.9673,0.9697,0.972,0.973,0.9736,0.9766,0.979,0.9814,0.9844,0.9893,0.994,1.0,1.006,1.008,1.013,1.019,1.026,1.028,1.028,1.036,1.042,1.044,1.053,1.053,1.051,1.049,1.0625,1.11,1.183,1.329,1.752,2.223,2.496,2.605,2.652,2.674,2.68,2.668,2.645,2.63,2.617,2.61,2.588,2.566,2.55,2.547,2.545,2.545,2.545,2.547,2.547,2.553,2.559,2.55,2.547,2.537,2.535,2.531,2.525,2.521,2.52,2.514,2.506,2.502,2.498,2.488,2.482,2.48,2.475,2.467,2.459,2.455,2.455,2.447,2.443,2.44,2.441,2.441,2.436,2.436,2.426,2.414,2.4,2.387,2.373,2.363,2.357,2.354,2.354,2.354,2.354,2.354,2.354,2.357,2.357,2.36,2.36,2.357,2.357,2.355,2.354,2.348,2.346,2.346,2.346,2.346,2.346,2.346,2.346,2.35,2.354,2.357,2.361,2.363,2.365,2.367,2.367,2.365,2.367,2.37,2.37,2.373,2.375,2.38,2.387,2.389,2.389,2.387,2.385,2.38,2.377,2.379,2.383,2.387,2.389,2.389,2.389,2.387,2.387,2.383,2.379,2.375,2.371,2.367,2.361,2.35,2.346,2.344,2.34,2.336,2.334,2.33,2.328,2.326,2.322,2.318,2.312,2.307,2.299,2.293,2.285,2.277,2.268,2.248,2.227,2.21,2.191,2.176,2.166,2.156,2.152,2.148,2.145,2.14,2.139,2.143,2.145,2.145,2.146,2.148,2.152,2.154,2.158,2.16,2.166,2.17,2.176,2.182,2.188,2.191,2.197,2.207,2.213,2.219,2.229,2.234,2.244,2.25,2.256,2.262,2.268,2.273,2.28,2.285,2.291,2.299,2.307,2.31,2.318,2.324,2.33,2.334,2.34,2.348,2.35,2.357,2.361,2.37,2.373,2.377,2.38,2.385,2.39,2.395,2.402,2.408,2.414,2.42,2.426,2.428,2.432,2.44,2.445,2.453,2.459,2.463,2.469,2.473,2.48,2.49,2.498,2.5,2.506,2.512,2.52,2.521,2.53,2.535,2.537,2.543,2.545,2.55,2.555,2.559,2.562,2.568,2.572,2.576,2.58,2.588,2.59,2.598,2.604,2.611,2.613,2.617,2.623,2.623,2.627,2.63,2.637,2.637,2.637,2.629,2.623,2.621,2.62,2.621,2.615,2.611,2.605,2.605,2.607,2.611,2.61,2.61,2.613,2.615,2.613,2.615,2.615,2.615,2.61,2.605,2.604,2.604,2.605,2.607,2.607,2.604,2.604,2.604,2.604,2.604,2.604,2.611,2.611,2.61,2.611,2.611,2.611,2.61,2.61,2.607,2.61,2.61,2.61,2.611,2.611,2.615,2.621,2.627,2.627,2.63,2.633,2.637,2.635,2.633,2.637,2.637,2.629,2.625,2.635,2.639,2.645,2.645,2.65,2.652,2.65,2.646,2.643,2.64,2.643,2.643,2.637,2.63,2.621,2.611,2.6,2.592,2.586,2.58,2.578,2.58,2.59,2.607,2.621,2.637,2.639,2.635,2.627,2.629,2.629,2.625,2.625,2.62,2.61,2.607,2.602,2.602,2.602,2.578
0.786,0.7827,0.783,0.783,0.78,0.7783,0.7793,0.7817,0.7803,0.78,0.78,0.78,0.7803,0.7812,0.782,0.7827,0.7837,0.785,0.787,0.7876,0.7896,0.791,0.7925,0.7944,0.7964,0.7974,0.799,0.8003,0.803,0.8057,0.8076,0.81,0.81,0.8125,0.815,0.817,0.819,0.8213,0.8257,0.828,0.829,0.831,0.833,0.8345,0.8364,0.8394,0.841,0.8423,0.845,0.8467,0.8477,0.8496,0.8516,0.853,0.8545,0.856,0.858,0.86,0.8613,0.864,0.8667,0.868,0.87,0.872,0.8745,0.876,0.876,0.878,0.88,0.8804,0.8813,0.8823,0.885,0.8857,0.8877,0.889,0.891,0.8926,0.895,0.897,0.899,0.9004,0.9023,0.904,0.905,0.906,0.907,0.9077,0.9087,0.9097,0.911,0.911,0.9116,0.913,0.9136,0.915,0.9155,0.9165,0.9175,0.9185,0.9185,0.9194,0.9194,0.921,0.923,0.9243,0.927,0.9287,0.93,0.9316,0.9326,0.9336,0.937,0.9395,0.9424,0.945,0.947,0.95,0.952,0.954,0.9575,0.959,0.961,0.964,0.9663,0.9673,0.9688,0.971,0.9727,0.9736,0.976,0.9775,0.981,0.984,0.9883,0.9937,1.0,1.005,1.007,1.012,1.018,1.025,1.027,1.028,1.035,1.042,1.044,1.052,1.052,1.05,1.047,1.057,1.102,1.167,1.284,1.67,2.14,2.438,2.574,2.63,2.664,2.674,2.666,2.639,2.62,2.611,2.607,2.596,2.574,2.562,2.55,2.547,2.547,2.547,2.547,2.547,2.55,2.553,2.547,2.541,2.535,2.531,2.527,2.521,2.52,2.514,2.508,2.504,2.502,2.498,2.494,2.488,2.482,2.473,2.465,2.457,2.451,2.445,2.443,2.441,2.441,2.441,2.438,2.434,2.426,2.416,2.406,2.395,2.383,2.371,2.361,2.355,2.352,2.352,2.352,2.352,2.352,2.35,2.348,2.348,2.352,2.352,2.352,2.354,2.354,2.35,2.346,2.346,2.346,2.344,2.344,2.344,2.344,2.344,2.346,2.348,2.352,2.354,2.36,2.36,2.36,2.36,2.357,2.357,2.357,2.36,2.361,2.365,2.37,2.373,2.375,2.375,2.373,2.373,2.363,2.367,2.367,2.371,2.375,2.377,2.377,2.377,2.377,2.375,2.373,2.367,2.361,2.354,2.35,2.346,2.34,2.338,2.334,2.33,2.33,2.326,2.324,2.32,2.316,2.31,2.309,2.299,2.291,2.281,2.268,2.256,2.24,2.215,2.193,2.176,2.156,2.146,2.14,2.135,2.13,2.127,2.125,2.125,2.127,2.127,2.129,2.13,2.133,2.137,2.14,2.143,2.146,2.148,2.154,2.16,2.164,2.17,2.176,2.184,2.188,2.195,2.205,2.21,2.219,2.229,2.234,2.24,2.248,2.256,2.26,2.266,2.273,2.28,2.287,2.291,2.299,2.307,2.312,2.32,2.324,2.33,2.334,2.34,2.346,2.35,2.354,2.36,2.363,2.371,2.375,2.379,2.385,2.39,2.396,2.402,2.408,2.416,2.422,2.428,2.432,2.436,2.44,2.447,2.453,2.459,2.463,2.469,2.473,2.48,2.49,2.498,2.5,2.506,2.512,2.52,2.523,2.531,2.535,2.537,2.543,2.547,2.55,2.553,2.559,2.562,2.566,2.57,2.574,2.582,2.586,2.59,2.598,2.605,2.61,2.613,2.62,2.623,2.625,2.627,2.633,2.637,2.637,2.637,2.633,2.627,2.625,2.623,2.623,2.62,2.613,2.611,2.611,2.611,2.615,2.615,2.613,2.617,2.623,2.617,2.621,2.623,2.623,2.615,2.611,2.611,2.611,2.611,2.615,2.615,2.611,2.611,2.611,2.61,2.61,2.61,2.617,2.62,2.617,2.615,2.615,2.615,2.611,2.611,2.611,2.611,2.611,2.611,2.611,2.615,2.615,2.625,2.627,2.629,2.63,2.635,2.637,2.637,2.633,2.635,2.637,2.629,2.627,2.63,2.639,2.64,2.643,2.646,2.65,2.646,2.64,2.637,2.637,2.639,2.639,2.633,2.627,2.62,2.61,2.6,2.594,2.588,2.58,2.58,2.582,2.592,2.607,2.623,2.637,2.639,2.637,2.63,2.633,2.633,2.629,2.627,2.623,2.613,2.607,2.605,2.602,2.604,2.578
0.7856,0.7827,0.783,0.7827,0.78,0.7773,0.7793,0.7812,0.7803,0.78,0.7793,0.7793,0.78,0.7812,0.7817,0.7827,0.7837,0.785,0.7866,0.7876,0.789,0.79,0.7915,0.794,0.7954,0.7964,0.799,0.8003,0.803,0.805,0.8076,0.809,0.81,0.8125,0.815,0.817,0.819,0.8213,0.8247,0.827,0.829,0.8306,0.8315,0.834,0.8364,0.838,0.8403,0.8423,0.844,0.846,0.8477,0.849,0.8506,0.8525,0.8535,0.8555,0.858,0.86,0.8613,0.864,0.8657,0.868,0.87,0.872,0.8745,0.876,0.877,0.878,0.88,0.8804,0.882,0.883,0.885,0.8867,0.8877,0.889,0.891,0.8926,0.895,0.897,0.899,0.901,0.9023,0.904,0.905,0.906,0.907,0.9077,0.909,0.9097,0.911,0.911,0.9116,0.912,0.9136,0.915,0.9155,0.9165,0.9175,0.918,0.9185,0.9185,0.9194,0.921,0.923,0.9233,0.927,0.9287,0.93,0.931,0.932,0.9336,0.936,0.9395,0.942,0.945,0.9463,0.9487,0.9517,0.954,0.9565,0.959,0.961,0.9634,0.966,0.9663,0.9688,0.971,0.972,0.9727,0.975,0.9775,0.98,0.9834,0.9873,0.993,0.9995,1.004,1.007,1.012,1.018,1.024,1.026,1.027,1.034,1.041,1.043,1.052,1.052,1.048,1.045,1.052,1.091,1.151,1.249,1.578,2.027,2.355,2.537,2.604,2.648,2.66,2.658,2.635,2.611,2.594,2.596,2.584,2.572,2.56,2.55,2.547,2.545,2.545,2.547,2.547,2.55,2.559,2.557,2.549,2.547,2.541,2.535,2.527,2.521,2.516,2.51,2.504,2.5,2.5,2.492,2.486,2.482,2.475,2.465,2.457,2.451,2.447,2.443,2.44,2.438,2.438,2.434,2.43,2.426,2.416,2.406,2.39,2.379,2.371,2.361,2.354,2.352,2.352,2.352,2.348,2.348,2.346,2.346,2.346,2.348,2.348,2.346,2.346,2.344,2.344,2.342,2.34,2.342,2.34,2.34,2.34,2.34,2.344,2.344,2.346,2.348,2.352,2.354,2.355,2.354,2.352,2.348,2.346,2.35,2.35,2.352,2.352,2.357,2.357,2.36,2.357,2.355,2.355,2.35,2.35,2.354,2.355,2.357,2.357,2.357,2.357,2.355,2.355,2.352,2.35,2.344,2.344,2.338,2.334,2.328,2.322,2.318,2.316,2.312,2.309,2.303,2.299,2.29,2.283,2.275,2.266,2.252,2.232,2.215,2.193,2.174,2.152,2.14,2.127,2.123,2.117,2.111,2.11,2.107,2.107,2.107,2.111,2.111,2.115,2.115,2.123,2.127,2.129,2.133,2.139,2.143,2.145,2.15,2.156,2.162,2.168,2.178,2.184,2.188,2.195,2.205,2.213,2.22,2.229,2.234,2.244,2.25,2.256,2.26,2.266,2.273,2.277,2.283,2.291,2.299,2.305,2.309,2.314,2.322,2.328,2.334,2.338,2.344,2.346,2.352,2.357,2.363,2.37,2.373,2.375,2.38,2.389,2.393,2.402,2.408,2.416,2.42,2.426,2.432,2.432,2.44,2.445,2.451,2.459,2.463,2.469,2.473,2.48,2.49,2.498,2.502,2.508,2.514,2.52,2.527,2.531,2.535,2.537,2.543,2.547,2.55,2.555,2.559,2.562,2.572,2.574,2.58,2.586,2.592,2.594,2.6,2.607,2.613,2.615,2.62,2.623,2.627,2.629,2.633,2.637,2.639,2.639,2.639,2.635,2.63,2.63,2.629,2.625,2.621,2.62,2.617,2.62,2.62,2.62,2.62,2.623,2.627,2.625,2.627,2.627,2.625,2.623,2.617,2.615,2.615,2.617,2.62,2.62,2.615,2.613,2.611,2.611,2.611,2.611,2.617,2.62,2.617,2.617,2.615,2.615,2.611,2.611,2.611,2.611,2.611,2.611,2.613,2.613,2.615,2.621,2.627,2.629,2.629,2.633,2.637,2.633,2.627,2.629,2.633,2.621,2.617,2.623,2.629,2.633,2.633,2.635,2.639,2.635,2.633,2.627,2.627,2.629,2.63,2.627,2.623,2.62,2.611,2.6,2.594,2.588,2.582,2.58,2.58,2.59,2.607,2.623,2.635,2.639,2.635,2.633,2.637,2.633,2.629,2.629,2.623,2.617,2.607,2.607,2.605,2.605,2.582
0.7856,0.7827,0.7827,0.782,0.7793,0.7773,0.779,0.781,0.7803,0.78,0.7793,0.779,0.78,0.781,0.7817,0.7817,0.7827,0.784,0.786,0.7866,0.788,0.79,0.7915,0.793,0.7944,0.796,0.798,0.8,0.8022,0.8047,0.807,0.8086,0.8096,0.8115,0.814,0.8164,0.818,0.8213,0.824,0.8267,0.8286,0.829,0.8315,0.8335,0.836,0.837,0.839,0.841,0.8433,0.845,0.8467,0.8477,0.85,0.8516,0.8535,0.8555,0.857,0.8584,0.861,0.8633,0.865,0.8677,0.8696,0.8726,0.8745,0.876,0.876,0.8784,0.88,0.8804,0.882,0.883,0.885,0.886,0.8877,0.8896,0.891,0.8926,0.895,0.8975,0.8994,0.901,0.9023,0.9043,0.9053,0.906,0.907,0.9077,0.909,0.9097,0.911,0.911,0.9116,0.912,0.9136,0.9146,0.915,0.9155,0.917,0.918,0.918,0.9185,0.9194,0.921,0.9224,0.9233,0.926,0.9277,0.93,0.9316,0.932,0.9336,0.9365,0.939,0.9414,0.9443,0.9453,0.948,0.951,0.9536,0.9565,0.9585,0.96,0.963,0.965,0.9663,0.968,0.97,0.972,0.9727,0.974,0.9766,0.9785,0.9814,0.9863,0.9927,0.998,1.003,1.006,1.011,1.016,1.022,1.024,1.026,1.034,1.041,1.044,1.051,1.053,1.05,1.045,1.05,1.083,1.138,1.22,1.499,1.923,2.277,2.486,2.574,2.625,2.645,2.643,2.627,2.605,2.59,2.578,2.568,2.559,2.55,2.547,2.54,2.535,2.54,2.545,2.549,2.557,2.564,2.562,2.559,2.549,2.543,2.537,2.531,2.523,2.52,2.512,2.504,2.5,2.496,2.486,2.479,2.47,2.465,2.455,2.45,2.445,2.441,2.44,2.438,2.436,2.436,2.434,2.428,2.424,2.414,2.404,2.393,2.38,2.37,2.36,2.35,2.35,2.35,2.348,2.346,2.344,2.342,2.342,2.344,2.346,2.346,2.342,2.342,2.34,2.334,2.334,2.332,2.332,2.334,2.336,2.334,2.336,2.338,2.342,2.342,2.346,2.346,2.35,2.35,2.346,2.342,2.342,2.342,2.34,2.338,2.338,2.34,2.342,2.342,2.34,2.34,2.336,2.334,2.332,2.334,2.338,2.34,2.342,2.34,2.342,2.342,2.342,2.342,2.34,2.338,2.334,2.328,2.326,2.316,2.31,2.303,2.299,2.293,2.29,2.281,2.271,2.258,2.244,2.232,2.213,2.197,2.182,2.16,2.143,2.133,2.121,2.113,2.105,2.104,2.102,2.1,2.096,2.094,2.094,2.098,2.1,2.102,2.102,2.104,2.11,2.111,2.117,2.123,2.129,2.133,2.139,2.145,2.15,2.156,2.162,2.172,2.182,2.186,2.191,2.2,2.207,2.215,2.225,2.23,2.238,2.244,2.25,2.256,2.262,2.266,2.273,2.277,2.283,2.29,2.295,2.3,2.307,2.312,2.316,2.324,2.33,2.334,2.34,2.344,2.35,2.357,2.361,2.367,2.373,2.377,2.379,2.385,2.395,2.398,2.404,2.412,2.418,2.422,2.43,2.43,2.438,2.443,2.45,2.457,2.463,2.469,2.473,2.48,2.49,2.498,2.502,2.508,2.514,2.52,2.527,2.531,2.535,2.537,2.543,2.547,2.55,2.557,2.562,2.564,2.574,2.58,2.582,2.59,2.594,2.6,2.604,2.61,2.613,2.617,2.623,2.623,2.627,2.627,2.633,2.639,2.639,2.64,2.64,2.639,2.639,2.637,2.637,2.63,2.625,2.625,2.625,2.625,2.625,2.625,2.627,2.63,2.635,2.635,2.635,2.635,2.629,2.625,2.621,2.621,2.62,2.621,2.621,2.621,2.615,2.617,2.613,2.611,2.613,2.613,2.621,2.621,2.621,2.62,2.617,2.617,2.613,2.611,2.611,2.611,2.611,2.611,2.613,2.613,2.615,2.623,2.625,2.627,2.625,2.629,2.63,2.627,2.621,2.621,2.621,2.611,2.605,2.607,2.613,2.613,2.613,2.615,2.621,2.62,2.615,2.613,2.613,2.615,2.62,2.621,2.62,2.615,2.61,2.602,2.598,2.588,2.584,2.58,2.578,2.588,2.607,2.62,2.633,2.637,2.633,2.629,2.63,2.629,2.625,2.627,2.623,2.617,2.607,2.607,2.605,2.61,2.584
0.7856,0.782,0.7827,0.782,0.7793,0.7773,0.7783,0.7803,0.78,0.78,0.7793,0.779,0.78,0.78,0.7812,0.7817,0.7827,0.784,0.7856,0.7866,0.7876,0.789,0.7905,0.793,0.7944,0.7954,0.797,0.7993,0.8022,0.804,0.8066,0.808,0.809,0.8115,0.814,0.8154,0.8174,0.8203,0.8237,0.8267,0.8276,0.829,0.831,0.8325,0.8354,0.837,0.839,0.841,0.843,0.844,0.846,0.847,0.849,0.8506,0.853,0.8545,0.856,0.858,0.8604,0.863,0.8657,0.867,0.869,0.8716,0.874,0.876,0.876,0.878,0.8794,0.8804,0.882,0.8823,0.8853,0.8867,0.8877,0.89,0.891,0.8926,0.8955,0.898,0.9004,0.902,0.9023,0.905,0.9053,0.9062,0.9077,0.9077,0.909,0.91,0.911,0.911,0.911,0.9126,0.9136,0.914,0.9146,0.916,0.9165,0.9175,0.9175,0.9185,0.919,0.9204,0.922,0.924,0.9253,0.9277,0.93,0.9307,0.9316,0.9336,0.9355,0.939,0.9414,0.943,0.946,0.948,0.9507,0.954,0.955,0.9575,0.9595,0.963,0.9644,0.966,0.968,0.97,0.9717,0.9727,0.9746,0.9766,0.9785,0.981,0.986,0.9917,0.997,1.003,1.005,1.01,1.017,1.022,1.024,1.026,1.034,1.041,1.043,1.05,1.054,1.051,1.047,1.05,1.079,1.127,1.197,1.437,1.833,2.207,2.434,2.543,2.598,2.617,2.621,2.607,2.594,2.582,2.574,2.564,2.55,2.547,2.54,2.537,2.537,2.543,2.543,2.547,2.555,2.557,2.557,2.549,2.543,2.537,2.527,2.52,2.508,2.502,2.494,2.488,2.48,2.475,2.469,2.459,2.451,2.445,2.436,2.43,2.426,2.426,2.424,2.422,2.424,2.424,2.424,2.418,2.416,2.402,2.395,2.387,2.375,2.361,2.352,2.342,2.342,2.342,2.342,2.34,2.34,2.338,2.334,2.338,2.34,2.34,2.338,2.338,2.334,2.332,2.326,2.324,2.324,2.324,2.326,2.326,2.326,2.332,2.334,2.336,2.336,2.336,2.336,2.338,2.336,2.332,2.328,2.328,2.328,2.328,2.326,2.326,2.324,2.324,2.318,2.314,2.312,2.31,2.312,2.314,2.316,2.32,2.32,2.322,2.326,2.326,2.326,2.326,2.324,2.32,2.316,2.312,2.307,2.297,2.283,2.273,2.268,2.258,2.244,2.229,2.205,2.182,2.168,2.154,2.135,2.117,2.111,2.104,2.096,2.094,2.092,2.088,2.084,2.08,2.08,2.08,2.078,2.082,2.084,2.088,2.088,2.09,2.092,2.096,2.1,2.107,2.111,2.117,2.123,2.129,2.135,2.143,2.146,2.156,2.162,2.172,2.182,2.188,2.193,2.2,2.209,2.215,2.225,2.23,2.238,2.244,2.254,2.256,2.262,2.268,2.271,2.277,2.281,2.285,2.293,2.297,2.305,2.307,2.312,2.32,2.328,2.332,2.338,2.344,2.348,2.355,2.361,2.365,2.371,2.375,2.38,2.385,2.395,2.4,2.404,2.412,2.42,2.424,2.43,2.43,2.438,2.443,2.45,2.457,2.463,2.467,2.473,2.48,2.49,2.498,2.5,2.508,2.514,2.52,2.523,2.53,2.535,2.537,2.543,2.545,2.55,2.555,2.562,2.568,2.572,2.58,2.584,2.59,2.592,2.598,2.602,2.61,2.613,2.617,2.623,2.623,2.627,2.629,2.637,2.639,2.64,2.645,2.645,2.645,2.64,2.64,2.64,2.637,2.635,2.633,2.63,2.63,2.633,2.633,2.635,2.639,2.639,2.639,2.637,2.639,2.637,2.629,2.623,2.625,2.623,2.625,2.625,2.623,2.62,2.62,2.617,2.615,2.615,2.617,2.625,2.623,2.625,2.62,2.62,2.62,2.615,2.613,2.611,2.611,2.611,2.611,2.613,2.613,2.615,2.621,2.625,2.625,2.621,2.625,2.625,2.621,2.613,2.613,2.615,2.604,2.598,2.6,2.604,2.604,2.604,2.604,2.607,2.61,2.605,2.602,2.602,2.605,2.613,2.613,2.613,2.611,2.607,2.602,2.598,2.588,2.584,2.58,2.578,2.586,2.607,2.62,2.633,2.637,2.635,2.629,2.633,2.629,2.627,2.629,2.623,2.617,2.61,2.607,2.605,2.61,2.586
0.7856,0.7827,0.7827,0.782,0.7793,0.7773,0.779,0.7803,0.78,0.78,0.779,0.779,0.7793,0.7803,0.7812,0.7817,0.7827,0.784,0.785,0.7866,0.788,0.789,0.791,0.7925,0.7944,0.795,0.797,0.7993,0.8022,0.8047,0.806,0.8086,0.809,0.8115,0.814,0.816,0.8174,0.8203,0.824,0.8267,0.8276,0.8296,0.831,0.8335,0.8354,0.837,0.839,0.841,0.843,0.844,0.846,0.8477,0.8486,0.8516,0.853,0.855,0.8564,0.8584,0.8604,0.8633,0.8657,0.867,0.87,0.872,0.8745,0.876,0.877,0.8794,0.8804,0.8813,0.8823,0.884,0.8857,0.8867,0.888,0.89,0.891,0.893,0.896,0.8984,0.9,0.902,0.9033,0.905,0.9053,0.9067,0.9077,0.9077,0.909,0.9097,0.911,0.911,0.911,0.9116,0.9126,0.9136,0.9146,0.916,0.916,0.917,0.9175,0.9175,0.918,0.92,0.9214,0.9224,0.925,0.9272,0.928,0.9297,0.9307,0.9316,0.9346,0.937,0.94,0.942,0.9443,0.9463,0.9487,0.9517,0.954,0.9556,0.9575,0.961,0.963,0.964,0.966,0.9688,0.9697,0.9707,0.973,0.975,0.9766,0.98,0.9854,0.99,0.995,1.001,1.004,1.008,1.014,1.0205,1.023,1.025,1.031,1.04,1.041,1.048,1.054,1.053,1.049,1.05,1.074,1.116,1.183,1.389,1.759,2.123,2.377,2.5,2.562,2.586,2.592,2.582,2.574,2.564,2.56,2.55,2.547,2.541,2.541,2.535,2.535,2.535,2.531,2.535,2.537,2.543,2.54,2.533,2.53,2.52,2.508,2.5,2.492,2.484,2.475,2.465,2.457,2.451,2.443,2.436,2.428,2.422,2.412,2.406,2.406,2.402,2.402,2.406,2.406,2.406,2.406,2.4,2.396,2.39,2.38,2.373,2.363,2.355,2.342,2.338,2.338,2.334,2.332,2.33,2.33,2.328,2.326,2.324,2.33,2.33,2.33,2.324,2.324,2.322,2.314,2.314,2.309,2.309,2.312,2.316,2.316,2.316,2.322,2.32,2.32,2.32,2.316,2.316,2.31,2.309,2.309,2.309,2.309,2.309,2.305,2.299,2.293,2.291,2.291,2.287,2.287,2.29,2.293,2.293,2.293,2.297,2.3,2.303,2.307,2.305,2.307,2.305,2.3,2.299,2.293,2.285,2.277,2.262,2.246,2.229,2.213,2.195,2.17,2.152,2.133,2.111,2.096,2.09,2.084,2.076,2.072,2.068,2.068,2.066,2.066,2.068,2.07,2.07,2.07,2.07,2.074,2.074,2.076,2.076,2.08,2.084,2.086,2.09,2.094,2.1,2.11,2.111,2.117,2.125,2.13,2.139,2.145,2.152,2.16,2.168,2.176,2.184,2.191,2.197,2.207,2.21,2.219,2.227,2.232,2.24,2.248,2.254,2.258,2.262,2.268,2.273,2.275,2.281,2.285,2.293,2.297,2.305,2.309,2.316,2.322,2.328,2.334,2.34,2.346,2.354,2.36,2.363,2.371,2.373,2.379,2.387,2.39,2.396,2.402,2.41,2.418,2.422,2.43,2.43,2.438,2.441,2.45,2.457,2.463,2.467,2.473,2.48,2.49,2.498,2.504,2.508,2.514,2.52,2.527,2.533,2.537,2.541,2.543,2.549,2.553,2.559,2.56,2.568,2.576,2.58,2.584,2.59,2.592,2.598,2.604,2.61,2.615,2.617,2.623,2.627,2.629,2.633,2.639,2.643,2.645,2.648,2.65,2.65,2.648,2.646,2.648,2.64,2.637,2.637,2.635,2.633,2.633,2.633,2.633,2.637,2.637,2.633,2.633,2.63,2.629,2.621,2.62,2.615,2.615,2.615,2.615,2.615,2.611,2.611,2.611,2.61,2.611,2.611,2.617,2.62,2.62,2.615,2.613,2.613,2.61,2.61,2.61,2.605,2.605,2.605,2.605,2.605,2.607,2.613,2.615,2.615,2.613,2.617,2.617,2.611,2.605,2.605,2.604,2.596,2.59,2.59,2.596,2.596,2.592,2.596,2.602,2.602,2.596,2.592,2.592,2.598,2.605,2.61,2.61,2.61,2.605,2.602,2.596,2.588,2.582,2.582,2.58,2.588,2.607,2.621,2.633,2.637,2.637,2.63,2.635,2.633,2.627,2.629,2.625,2.621,2.611,2.605,2.605,2.611,2.586
0.7856,0.7827,0.7827,0.782,0.7793,0.7773,0.779,0.781,0.7803,0.78,0.7793,0.7793,0.78,0.781,0.7817,0.782,0.783,0.7847,0.7856,0.7866,0.788,0.789,0.791,0.793,0.795,0.796,0.7983,0.7993,0.8022,0.8047,0.8076,0.8086,0.8096,0.812,0.8145,0.816,0.8174,0.8203,0.824,0.8267,0.8286,0.829,0.8315,0.8335,0.8354,0.8374,0.8394,0.841,0.8433,0.845,0.847,0.848,0.8496,0.8516,0.8535,0.856,0.858,0.8594,0.8613,0.8643,0.867,0.8687,0.871,0.873,0.8755,0.877,0.878,0.8794,0.881,0.882,0.8833,0.885,0.8857,0.887,0.8887,0.8906,0.892,0.894,0.896,0.899,0.901,0.902,0.9033,0.9053,0.9067,0.907,0.9077,0.9087,0.909,0.9097,0.9106,0.911,0.911,0.911,0.9116,0.9126,0.9136,0.9146,0.916,0.916,0.916,0.9165,0.9175,0.919,0.9204,0.922,0.924,0.926,0.9272,0.928,0.928,0.9307,0.9316,0.935,0.9375,0.94,0.9414,0.9443,0.9463,0.9487,0.9517,0.953,0.955,0.9575,0.9595,0.9614,0.963,0.9653,0.967,0.9683,0.9707,0.9727,0.974,0.9766,0.9814,0.9873,0.9937,0.9976,1.0,1.005,1.012,1.018,1.02,1.022,1.03,1.038,1.04,1.046,1.055,1.055,1.05,1.05,1.071,1.108,1.168,1.349,1.686,2.035,2.314,2.463,2.525,2.549,2.553,2.553,2.547,2.543,2.543,2.537,2.53,2.531,2.527,2.527,2.523,2.521,2.516,2.516,2.516,2.521,2.516,2.508,2.504,2.492,2.486,2.475,2.465,2.457,2.45,2.441,2.432,2.424,2.42,2.412,2.404,2.396,2.389,2.385,2.38,2.38,2.38,2.383,2.387,2.389,2.387,2.383,2.377,2.375,2.367,2.361,2.352,2.344,2.334,2.33,2.33,2.326,2.32,2.316,2.314,2.309,2.307,2.312,2.314,2.316,2.312,2.31,2.307,2.305,2.303,2.297,2.295,2.291,2.293,2.295,2.297,2.297,2.299,2.295,2.297,2.293,2.293,2.29,2.28,2.275,2.275,2.275,2.277,2.273,2.27,2.262,2.262,2.262,2.262,2.26,2.26,2.262,2.264,2.27,2.275,2.28,2.281,2.281,2.285,2.285,2.285,2.281,2.277,2.273,2.264,2.252,2.234,2.213,2.186,2.158,2.135,2.117,2.102,2.082,2.07,2.059,2.055,2.053,2.053,2.05,2.05,2.05,2.053,2.057,2.06,2.062,2.062,2.064,2.064,2.064,2.068,2.068,2.072,2.074,2.078,2.082,2.086,2.09,2.094,2.104,2.11,2.113,2.117,2.125,2.13,2.139,2.145,2.152,2.158,2.168,2.174,2.184,2.186,2.191,2.2,2.207,2.213,2.22,2.227,2.232,2.238,2.246,2.252,2.256,2.262,2.266,2.273,2.275,2.283,2.291,2.295,2.299,2.307,2.31,2.318,2.324,2.332,2.338,2.344,2.348,2.355,2.36,2.367,2.371,2.375,2.379,2.387,2.395,2.398,2.406,2.414,2.42,2.424,2.43,2.434,2.441,2.447,2.455,2.46,2.47,2.473,2.48,2.492,2.498,2.506,2.512,2.518,2.525,2.531,2.535,2.541,2.547,2.549,2.555,2.56,2.562,2.564,2.57,2.58,2.582,2.588,2.592,2.598,2.602,2.605,2.613,2.62,2.623,2.625,2.633,2.635,2.637,2.64,2.648,2.65,2.65,2.65,2.65,2.648,2.648,2.648,2.645,2.639,2.637,2.635,2.629,2.629,2.629,2.627,2.627,2.627,2.623,2.621,2.621,2.617,2.613,2.607,2.607,2.604,2.605,2.607,2.607,2.604,2.604,2.604,2.6,2.6,2.604,2.607,2.61,2.607,2.607,2.604,2.605,2.602,2.602,2.602,2.602,2.602,2.602,2.602,2.602,2.602,2.607,2.611,2.611,2.611,2.611,2.611,2.61,2.602,2.604,2.604,2.588,2.584,2.588,2.594,2.596,2.59,2.594,2.6,2.598,2.592,2.592,2.592,2.598,2.605,2.607,2.61,2.605,2.602,2.602,2.594,2.588,2.58,2.58,2.58,2.588,2.607,2.623,2.633,2.637,2.637,2.633,2.637,2.633,2.629,2.629,2.627,2.621,2.615,2.607,2.605,2.613,2.59
0.7856,0.7827,0.7827,0.7827,0.7793,0.777,0.7783,0.7803,0.78,0.78,0.7793,0.7793,0.78,0.781,0.7817,0.782,0.7827,0.784,0.786,0.7866,0.788,0.789,0.791,0.793,0.795,0.796,0.798,0.7993,0.8022,0.8047,0.8076,0.8086,0.8096,0.8115,0.8145,0.817,0.8174,0.821,0.824,0.8267,0.8286,0.829,0.8315,0.8335,0.836,0.8374,0.8394,0.841,0.8433,0.845,0.8467,0.848,0.8496,0.8516,0.8535,0.856,0.858,0.86,0.862,0.865,0.867,0.869,0.8716,0.8735,0.876,0.8774,0.8774,0.88,0.881,0.8823,0.884,0.885,0.8867,0.887,0.8887,0.8906,0.892,0.894,0.896,0.8994,0.902,0.903,0.9033,0.9053,0.9067,0.907,0.9077,0.9087,0.909,0.9097,0.91,0.9106,0.9106,0.911,0.9116,0.9116,0.9126,0.9136,0.9146,0.915,0.9155,0.916,0.9165,0.9185,0.9194,0.9204,0.923,0.925,0.9263,0.927,0.9272,0.9287,0.931,0.934,0.936,0.9385,0.9404,0.9424,0.9443,0.9478,0.9497,0.952,0.9536,0.956,0.959,0.9595,0.9614,0.9634,0.9653,0.9673,0.9688,0.9717,0.973,0.975,0.9805,0.986,0.991,0.9956,0.9985,1.004,1.01,1.016,1.019,1.021,1.028,1.036,1.038,1.045,1.055,1.056,1.052,1.05,1.067,1.101,1.157,1.317,1.628,1.959,2.268,2.43,2.496,2.52,2.525,2.525,2.523,2.521,2.521,2.514,2.512,2.512,2.51,2.506,2.504,2.498,2.49,2.488,2.488,2.49,2.484,2.475,2.47,2.46,2.451,2.441,2.434,2.424,2.418,2.404,2.398,2.396,2.389,2.385,2.377,2.371,2.365,2.363,2.361,2.363,2.365,2.367,2.371,2.37,2.373,2.37,2.363,2.355,2.35,2.342,2.338,2.328,2.324,2.318,2.314,2.307,2.3,2.299,2.293,2.291,2.293,2.299,2.3,2.299,2.299,2.295,2.293,2.291,2.287,2.283,2.281,2.277,2.275,2.275,2.277,2.277,2.275,2.275,2.271,2.271,2.268,2.266,2.258,2.25,2.248,2.248,2.248,2.246,2.238,2.236,2.236,2.238,2.234,2.23,2.238,2.242,2.248,2.25,2.256,2.258,2.258,2.26,2.262,2.262,2.264,2.262,2.258,2.246,2.227,2.205,2.182,2.143,2.115,2.088,2.072,2.057,2.045,2.041,2.033,2.027,2.025,2.027,2.031,2.033,2.033,2.035,2.04,2.043,2.045,2.049,2.05,2.053,2.055,2.059,2.06,2.064,2.066,2.068,2.072,2.076,2.084,2.088,2.094,2.098,2.11,2.113,2.117,2.127,2.133,2.14,2.146,2.152,2.16,2.168,2.176,2.184,2.186,2.193,2.2,2.205,2.209,2.219,2.225,2.229,2.236,2.242,2.246,2.254,2.258,2.264,2.27,2.275,2.281,2.287,2.291,2.299,2.307,2.31,2.316,2.322,2.33,2.336,2.344,2.346,2.354,2.36,2.365,2.37,2.373,2.379,2.389,2.393,2.398,2.404,2.414,2.418,2.424,2.426,2.434,2.441,2.447,2.455,2.46,2.469,2.475,2.48,2.49,2.5,2.506,2.512,2.518,2.521,2.531,2.535,2.543,2.547,2.549,2.555,2.56,2.564,2.568,2.572,2.58,2.586,2.588,2.594,2.602,2.604,2.61,2.613,2.621,2.623,2.627,2.635,2.637,2.637,2.645,2.648,2.65,2.65,2.652,2.65,2.65,2.65,2.65,2.645,2.639,2.637,2.635,2.629,2.629,2.625,2.623,2.623,2.623,2.62,2.617,2.617,2.613,2.607,2.604,2.604,2.6,2.602,2.604,2.604,2.6,2.6,2.6,2.598,2.598,2.6,2.604,2.605,2.605,2.604,2.602,2.602,2.602,2.602,2.602,2.602,2.602,2.602,2.602,2.602,2.602,2.607,2.611,2.61,2.61,2.613,2.613,2.611,2.604,2.604,2.605,2.59,2.584,2.588,2.592,2.592,2.588,2.594,2.6,2.598,2.594,2.59,2.592,2.6,2.605,2.605,2.607,2.605,2.602,2.602,2.596,2.588,2.582,2.582,2.582,2.59,2.61,2.623,2.637,2.637,2.637,2.635,2.637,2.635,2.629,2.633,2.63,2.623,2.615,2.61,2.605,2.613,2.588
0.7856,0.782,0.783,0.7827,0.779,0.777,0.7783,0.7803,0.78,0.78,0.7793,0.779,0.78,0.781,0.7817,0.782,0.7827,0.784,0.785,0.7866,0.7876,0.789,0.7915,0.793,0.7944,0.796,0.7974,0.7993,0.8022,0.8047,0.8066,0.8086,0.809,0.8115,0.814,0.816,0.8174,0.8203,0.824,0.8267,0.8286,0.8296,0.8315,0.8335,0.836,0.838,0.8394,0.8413,0.8433,0.845,0.846,0.847,0.8496,0.8516,0.8535,0.856,0.8574,0.8594,0.8613,0.8643,0.8677,0.87,0.8716,0.873,0.8765,0.8774,0.878,0.88,0.8813,0.8823,0.884,0.8853,0.8867,0.888,0.889,0.8906,0.892,0.8936,0.8965,0.899,0.901,0.903,0.9033,0.9053,0.9067,0.907,0.9077,0.908,0.909,0.909,0.91,0.909,0.9097,0.911,0.911,0.911,0.9116,0.9136,0.914,0.915,0.915,0.915,0.916,0.9175,0.9194,0.92,0.9224,0.924,0.925,0.926,0.9272,0.9277,0.93,0.933,0.9355,0.937,0.9395,0.9414,0.943,0.946,0.948,0.9497,0.9517,0.955,0.9575,0.9585,0.96,0.9624,0.9644,0.9653,0.9683,0.9697,0.9717,0.9727,0.978,0.985,0.9893,0.9946,0.997,1.002,1.009,1.015,1.017,1.02,1.027,1.034,1.037,1.042,1.052,1.056,1.052,1.048,1.063,1.094,1.146,1.3,1.594,1.911,2.23,2.402,2.475,2.494,2.5,2.502,2.5,2.498,2.496,2.49,2.486,2.482,2.482,2.477,2.467,2.46,2.453,2.45,2.447,2.447,2.44,2.432,2.428,2.42,2.412,2.404,2.395,2.387,2.38,2.375,2.379,2.373,2.365,2.361,2.357,2.352,2.35,2.346,2.346,2.348,2.352,2.35,2.352,2.357,2.354,2.35,2.342,2.33,2.32,2.316,2.312,2.307,2.305,2.3,2.297,2.29,2.283,2.281,2.277,2.277,2.275,2.28,2.281,2.281,2.28,2.277,2.271,2.27,2.266,2.262,2.262,2.256,2.256,2.254,2.25,2.248,2.25,2.248,2.246,2.246,2.244,2.24,2.234,2.23,2.227,2.225,2.225,2.217,2.213,2.209,2.207,2.205,2.203,2.201,2.207,2.213,2.219,2.225,2.227,2.227,2.229,2.229,2.229,2.23,2.227,2.22,2.209,2.19,2.162,2.125,2.098,2.07,2.045,2.035,2.027,2.021,2.018,2.016,2.012,2.01,2.01,2.016,2.02,2.025,2.025,2.027,2.027,2.031,2.035,2.04,2.043,2.047,2.049,2.053,2.057,2.06,2.064,2.068,2.07,2.074,2.082,2.088,2.094,2.098,2.11,2.113,2.121,2.129,2.135,2.143,2.146,2.152,2.16,2.168,2.176,2.182,2.186,2.193,2.197,2.203,2.207,2.217,2.223,2.229,2.232,2.24,2.244,2.25,2.258,2.26,2.268,2.273,2.28,2.287,2.291,2.297,2.303,2.309,2.312,2.322,2.328,2.334,2.34,2.348,2.355,2.36,2.365,2.37,2.373,2.379,2.387,2.393,2.396,2.404,2.412,2.418,2.424,2.426,2.432,2.44,2.447,2.455,2.46,2.469,2.475,2.48,2.49,2.498,2.504,2.508,2.514,2.521,2.527,2.533,2.54,2.545,2.549,2.553,2.557,2.562,2.566,2.572,2.58,2.584,2.588,2.596,2.6,2.604,2.61,2.615,2.621,2.623,2.629,2.635,2.637,2.64,2.646,2.65,2.652,2.65,2.654,2.652,2.65,2.65,2.65,2.648,2.643,2.639,2.635,2.63,2.63,2.625,2.623,2.623,2.623,2.617,2.617,2.617,2.613,2.61,2.604,2.604,2.604,2.604,2.604,2.604,2.6,2.6,2.6,2.598,2.598,2.6,2.604,2.607,2.605,2.604,2.604,2.604,2.602,2.604,2.6,2.6,2.604,2.604,2.604,2.604,2.604,2.61,2.611,2.611,2.611,2.617,2.617,2.611,2.607,2.607,2.607,2.594,2.588,2.588,2.596,2.594,2.59,2.594,2.602,2.6,2.594,2.594,2.594,2.602,2.607,2.607,2.61,2.605,2.605,2.602,2.598,2.588,2.584,2.584,2.584,2.59,2.613,2.627,2.639,2.637,2.639,2.637,2.639,2.637,2.635,2.635,2.633,2.623,2.617,2.61,2.605,2.615,2.592
